ply
format ascii 1.0
comment created by gply, a Houdini tool.
comment converted from .[b]geo
comment for more information about Houdini, try:
comment www.sidefx.com
element vertex 582
property float x
property float y
property float z
property float nx
property float ny
property float nz
property uchar red
property uchar green
property uchar blue
element face 0
property list uchar int vertex_indices
end_header
498.722931 791.456848 382.586487 0.942534506 0.261781722 -0.184552103 199 199 199 
471.692108 812.454712 326.536316 0.631657124 0.475860596 -0.608063698 220 220 220 
464.123077 782.58197 314.641754 0.527100086 0.187247351 -0.828840137 255 255 255 
419.733398 821.595703 438.355682 0.0919097811 0.65062654 0.752500415 63 63 63 
420.320282 823.520203 437.054657 0.141765431 0.648821354 0.746566653 182 182 182 
507.234985 761.473816 380.381348 0.26561898 0.213609189 -0.940082669 213 213 213 
504.594513 753.211792 376.628113 0.572333276 0.501388133 -0.647851586 215 215 215 
439.55365 848.202515 402.24939 0.271888018 0.907607019 0.319558442 212 212 212 
464.226257 838.941101 396.013947 0.561593056 0.80623579 0.185150117 142 142 142 
494.722015 795.242249 384.163391 0.653203189 0.312441111 0.688161194 235 235 235 
433.279907 852.296814 389.28006 0.274789512 0.943280816 0.185698271 214 214 214 
432.1521 842.606018 417.3815 0.0964563638 0.812992454 0.574580789 69 69 69 
463.017151 838.387146 374.763977 0.482322425 0.86043942 -0.164016664 118 118 118 
496.044464 797.320068 360.057953 0.887256742 0.457010925 -0.0640941933 162 162 162 
459.895905 836.075623 349.079468 0.570847869 0.777014077 -0.265096396 133 133 133 
506.855255 776.066589 387.594299 0.72148025 0.68883425 0.0213965625 219 219 219 
443.460571 850.502563 382.351593 0.430819631 0.900703788 0.0567716584 126 126 126 
495.505157 802.518311 360.792267 0.815084875 0.573738515 -0.080121696 124 124 124 
465.229095 837.315247 392.689728 0.571887672 0.81506753 0.0907305628 231 231 231 
461.019257 841.167725 380.197571 0.511273146 0.856487691 -0.0711743534 149 149 149 
486.983307 810.998169 363.303162 0.841395855 0.535329223 -0.0709919259 255 255 255 
490.078705 805.629822 401.293427 0.848397255 0.325446337 0.414923131 40 40 40 
459.170624 829.72052 334.815491 0.550019085 0.741839051 -0.382627338 154 154 154 
478.571655 814.152771 338.957092 0.714460135 0.562354982 -0.415854752 62 62 62 
493.942261 802.382751 392.221161 0.944542646 0.290563256 0.153480276 231 231 231 
438.725861 845.721619 409.178711 0.197762221 0.920605361 0.336785406 242 242 242 
408.099945 800.611572 449.578369 0.0370831005 0.38037014 0.923990846 142 142 142 
493.252991 801.779297 376.958008 0.904153168 0.417559057 -0.0912813842 96 96 96 
502.471283 752.878235 373.85675 0.584618688 0.535032332 -0.60944432 196 196 196 
445.821716 845.880737 402.596008 0.326603055 0.911263227 0.250200391 223 223 223 
496.847473 795.774109 352.877686 0.84511435 0.319402009 -0.428806931 228 228 228 
456.475983 843.137024 373.213928 0.639189601 0.768475473 -0.0251412168 251 251 251 
489.068481 805.715942 346.615906 0.84419024 0.447257996 -0.295700759 189 189 189 
484.812469 815.715576 381.458252 0.836748242 0.54541266 0.0225294586 140 140 140 
417.473206 838.301086 421.102356 -0.0479412861 0.70559454 0.707003236 75 75 75 
482.516571 785.106262 329.840302 0.52265662 0.302022874 -0.797312737 124 124 124 
479.688507 798.123352 331.258667 0.756682575 0.231713146 -0.610509098 175 175 175 
486.251984 813.656921 370.250183 0.861017585 0.507783532 -0.0308226738 225 225 225 
411.737762 845.463928 415.155151 -0.101778172 0.78102386 0.616125107 250 250 250 
456.586639 843.236084 385.547913 0.541223943 0.840759754 0.021101594 131 131 131 
472.846466 831.049561 385.222656 0.698798418 0.715359628 0.00631786603 63 63 63 
510.68985 768.969604 385.22818 0.594664037 0.375162691 -0.709806204 141 141 141 
498.30365 770.042419 400.917328 0.20187673 0.498735547 0.83939153 93 93 93 
446.74292 839.139038 339.247467 0.398275137 0.816078067 -0.418504626 183 183 183 
493.814575 803.049866 379.179749 0.872687161 0.487818331 0.0125890085 159 159 159 
455.868042 803.172668 437.692047 0.270593643 0.368214816 0.887285888 223 223 223 
450.712463 839.936523 409.229523 0.403970003 0.83091867 0.382343471 101 101 101 
483.367645 787.498962 329.684143 0.565932393 0.317777544 -0.760597169 199 199 199 
473.639008 777.362305 318.544128 0.579466105 -0.02105904 -0.812803507 69 69 69 
459.150391 818.435425 427.781494 0.34606272 0.504206896 0.7908988 222 222 222 
487.197906 809.66333 363.282959 0.859041035 0.512149632 -0.000414736831 129 129 129 
494.84903 782.652649 340.186279 0.805421174 0.0949833021 -0.586051106 243 243 243 
405.616547 833.443787 425.576965 -0.0734986365 0.754542232 0.652002811 120 120 120 
437.814972 847.897827 406.43924 0.262321711 0.906240165 0.330918431 163 163 163 
478.711334 794.682617 328.214722 0.678100944 0.17314814 -0.714149237 253 253 253 
461.06723 817.678894 321.943329 0.451412469 0.556387007 -0.696569145 226 226 226 
487.599091 812.48468 388.977203 0.713515162 0.69866389 -0.0531211793 141 141 141 
451.395905 844.00769 400.010468 0.37346223 0.895410657 0.242325127 195 195 195 
403.029266 830.781372 430.690308 -0.0777224079 0.732226014 0.676376939 225 225 225 
454.67334 841.915527 398.021149 0.455333799 0.863172412 0.217762709 166 166 166 
470.522797 821.009399 417.979797 0.530789554 0.664655983 0.523749053 119 119 119 
482.939453 795.788696 332.463959 0.851082146 0.0639981702 -0.520966887 186 186 186 
442.031921 816.027527 435.688019 0.32229358 0.533832073 0.781604111 217 217 217 
482.100769 818.069214 396.363251 0.739584506 0.668769121 0.0753298104 86 86 86 
500.801361 780.431946 390.979187 0.706445694 0.597909808 0.378128648 221 221 221 
463.322449 788.156311 315.751495 0.502636611 0.163493469 -0.848599017 181 181 181 
427.571167 839.261658 420.551514 0.0778930634 0.713682711 0.69610852 224 224 224 
468.180267 827.304749 340.313232 0.496165752 0.778105617 -0.384986162 38 38 38 
496.18277 797.697754 352.430725 0.859752059 0.332508028 -0.388278693 21 21 21 
446.99881 822.832275 429.901398 0.308295548 0.496807516 0.809146643 156 156 156 
473.340332 783.327148 322.405487 0.675237536 0.145976156 -0.722381949 99 99 99 
495.000275 797.50177 350.940521 0.831050098 0.282591134 -0.479196727 36 36 36 
457.986053 804.795959 436.895142 0.208337933 0.36396569 0.908002973 250 250 250 
486.222046 799.285339 338.255585 0.852815986 0.208533823 -0.477853298 148 148 148 
462.747437 785.781616 315.276184 0.536973715 0.171375394 -0.825950503 100 100 100 
435.389893 838.739685 332.04483 0.255912662 0.812364995 -0.523604512 97 97 97 
446.117523 820.455444 430.645264 0.36464563 0.452939987 0.812640131 55 55 55 
463.393524 819.234375 425.724243 0.398623884 0.570494115 0.717252612 148 148 148 
445.422974 839.519592 336.087067 0.36812982 0.782481849 -0.501529932 216 216 216 
495.795197 796.868469 354.158844 0.871758699 0.321178198 -0.370504558 216 216 216 
490.235382 806.031494 388.834412 0.869152665 0.456776947 -0.189959586 177 177 177 
460.870178 807.28772 434.958252 0.22281149 0.423905492 0.87752527 64 64 64 
429.687775 830.440002 428.406494 0.0983977169 0.666396558 0.739059627 242 242 242 
492.101868 806.643921 369.995636 0.737383842 0.674744964 0.00788184255 152 152 152 
482.726074 806.32019 419.052734 0.861265242 0.346312702 0.370083928 202 202 202 
493.699249 799.540833 350.790527 0.814400911 0.437048197 -0.380576313 156 156 156 
442.428894 827.511658 427.477997 0.201349363 0.58497113 0.785352886 112 112 112 
450.798889 841.224792 345.504578 0.468249321 0.811717153 -0.348617673 143 143 143 
471.824707 820.499756 417.826813 0.60652107 0.645022571 0.464977115 173 173 173 
458.635468 820.148438 427.639709 0.406462282 0.404272407 0.819525599 130 130 130 
469.045685 824.41272 338.715973 0.564011097 0.702093363 -0.434199452 119 119 119 
466.959656 832.264832 355.217102 0.571835399 0.794279218 -0.204774052 117 117 117 
464.890991 829.787598 345.047333 0.520296812 0.771967411 -0.365122139 234 234 234 
486.58548 807.55011 413.602203 0.81532377 0.316139251 0.480447531 235 235 235 
484.927155 788.044495 331.742554 0.631745458 0.34468469 -0.694470704 176 176 176 
465.022095 836.264343 361.932434 0.556220353 0.80774647 -0.193435133 133 133 133 
495.005646 799.825195 361.456268 0.860731542 0.507108092 -0.0404544622 128 128 128 
453.949219 844.910706 394.677368 0.452040106 0.879826188 0.147043183 208 208 208 
445.505402 816.588989 432.996796 0.231160909 0.548651814 0.802981019 225 225 225 
458.086182 838.416992 349.703094 0.54257071 0.793992102 -0.273482412 62 62 62 
484.954041 817.847595 367.658539 0.831129074 0.555250645 -0.021951925 231 231 231 
466.453339 784.514465 314.63089 0.526994467 0.186873525 -0.829067111 234 234 234 
460.597168 829.203247 333.725586 0.516941845 0.727044582 -0.451279074 186 186 186 
507.551788 773.54187 383.890656 0.669763684 0.488241047 -0.55431807 164 164 164 
462.663696 838.354736 371.002136 0.547049284 0.834359407 -0.0669285282 217 217 217 
465.265778 824.837341 334.839081 0.557298243 0.686535656 -0.466436416 186 186 186 
415.014862 837.025085 422.68573 -0.0657794476 0.692412615 0.718613267 149 149 149 
465.405121 824.165039 335.409698 0.540615261 0.682962298 -0.490528673 255 255 255 
485.429535 798.702454 338.152557 0.77829963 0.246745571 -0.576403916 161 161 161 
506.426575 774.372559 390.915741 0.656477094 0.717746735 0.231630594 255 255 255 
463.787537 786.999695 315.30368 0.51942271 0.189438447 -0.833070993 178 178 178 
440.809875 845.005676 408.39682 0.235000163 0.907756507 0.34599176 198 198 198 
452.432251 843.708252 394.621185 0.423196435 0.889993191 0.167875141 160 160 160 
456.196899 818.103821 429.564056 0.300771832 0.514751494 0.802991211 203 203 203 
488.484924 810.122986 362.57132 0.857136667 0.514180183 -0.0320426151 240 240 240 
486.118469 815.326355 363.827271 0.858046591 0.510620654 -0.0481855534 89 89 89 
418.069305 834.762695 426.160339 0.0180086661 0.684066057 0.728913128 201 201 201 
478.646606 790.884399 326.914185 0.697612464 0.05102925 -0.713572145 118 118 118 
413.753754 839.795227 421.524384 -0.128501832 0.72422719 0.677064478 225 225 225 
440.769531 822.137268 313.703369 0.321701497 0.587755442 -0.742286026 249 249 249 
468.55545 831.24054 405.177216 0.721684158 0.54068625 0.432523251 189 189 189 
456.979004 841.889771 370.319153 0.604996145 0.795681477 -0.0219702628 241 241 241 
452.934967 845.621643 383.10083 0.478704095 0.876789212 0.0260059051 188 188 188 
452.050323 840.194275 344.241486 0.468898118 0.81866008 -0.331605196 241 241 241 
504.94519 753.722351 375.381836 0.554381251 0.463664263 -0.69052279 228 228 228 
475.049927 819.440063 414.856384 0.548827112 0.706976354 0.446329981 239 239 239 
463.327972 784.415222 314.908844 0.519681573 0.195457458 -0.831540108 149 149 149 
496.605652 784.832581 348.586151 0.987903655 0.0123178922 -0.155274659 95 95 95 
444.533569 845.377808 404.128052 0.312871158 0.898592412 0.307008862 202 202 202 
493.587372 798.063599 386.367462 0.914119601 0.243293345 0.324020803 255 255 255 
490.687775 809.468567 391.089264 0.839327753 0.541317523 -0.0504371338 128 128 128 
441.830261 842.094543 340.763611 0.336842269 0.819118977 -0.46376425 188 188 188 
467.075043 832.356689 351.811401 0.598704755 0.771453798 -0.215270042 77 77 77 
485.465668 811.717896 357.941925 0.826923609 0.549595594 -0.122032881 210 210 210 
506.330566 775.543701 387.880127 0.7153126 0.685254097 -0.115098268 172 172 172 
462.569946 819.874146 426.711395 0.425658882 0.504520714 0.749453068 157 157 157 
496.675385 797.016479 379.076202 0.951328933 0.174318761 -0.254363 255 255 255 
457.391205 830.178772 332.720093 0.387302905 0.740580201 -0.548637569 189 189 189 
423.039642 829.735229 432.001923 0.153904736 0.690045476 0.706818461 143 143 143 
455.210083 842.643555 371.270813 0.613028467 0.790049076 0.00532974722 243 243 243 
463.704529 818.982666 425.738312 0.40970251 0.570814729 0.710532784 233 233 233 
496.126282 790.938538 387.307037 0.846864045 0.421751022 0.318921566 236 236 236 
436.438568 845.529968 343.137512 0.304659963 0.852830291 -0.424012154 239 239 239 
466.948578 832.90686 351.937286 0.582650065 0.78044343 -0.226942807 227 227 227 
476.601593 810.312683 332.098358 0.721654594 0.401057303 -0.564154983 197 197 197 
462.812988 839.459351 369.909271 0.582761526 0.810543537 -0.0519304723 55 55 55 
497.164459 799.070007 358.982178 0.887526751 0.457518995 -0.0575600415 165 165 165 
482.102142 792.974365 329.745361 0.739944994 0.0266151801 -0.670511425 255 255 255 
450.394104 825.022827 320.367126 0.394673377 0.619000912 -0.678643525 115 115 115 
515.83551 766.96637 389.210571 0.766055167 0.520812809 -0.376422614 168 168 168 
450.020996 846.958435 391.495178 0.392462671 0.904943109 0.16328989 85 85 85 
478.459503 780.289429 324.588715 0.591871381 0.17785573 -0.785629153 195 195 195 
452.054626 802.511841 438.015686 0.413466156 0.398995101 0.818338573 238 238 238 
412.988068 846.506287 412.340698 -0.0724577978 0.821240008 0.565729916 201 201 201 
452.492188 833.016113 421.512054 0.390066266 0.663934827 0.637717962 154 154 154 
448.239075 824.478455 320.904938 0.342524588 0.64332068 -0.684421778 227 227 227 
442.386169 844.926208 405.471436 0.282234222 0.897703528 0.337502122 89 89 89 
479.242065 819.358032 406.578033 0.669022083 0.724439204 0.159424931 233 233 233 
486.066406 814.7099 396.179779 0.658198118 0.752319157 0.0251758434 115 115 115 
416.940247 840.993713 421.335663 -0.0730477273 0.704657257 0.705705762 198 198 198 
495.694061 796.650635 376.832184 0.955604553 0.288307488 -0.0351846181 230 230 230 
442.604797 849.28009 391.978607 0.331853926 0.929061472 0.162068576 153 153 153 
458.918884 829.876404 333.165405 0.415970325 0.74247396 -0.524352968 154 154 154 
444.065063 845.858032 402.521484 0.312790424 0.909775913 0.272889644 140 140 140 
494.076385 805.262207 366.033173 0.654949367 0.753620744 0.0499803647 215 215 215 
455.649719 844.040161 387.450256 0.470374137 0.877191305 0.0955830663 46 46 46 
410.36499 805.600098 447.921295 0.0698960423 0.42485708 0.902094483 180 180 180 
516.545227 765.755798 389.121155 0.711822987 0.487273753 -0.501942635 183 183 183 
463.401489 804.066589 317.484131 0.554768264 0.153672248 -0.817400098 255 255 255 
428.877045 852.225647 399.891418 0.170826703 0.936815739 0.303665698 149 149 149 
507.248505 773.718872 390.041412 0.539853036 0.840374947 -0.019006107 104 104 104 
487.164795 812.524902 388.511261 0.718866169 0.690237164 -0.0800225362 176 176 176 
495.798859 797.739807 360.206909 0.888183475 0.455234408 -0.0636422709 164 164 164 
454.69165 826.376038 326.610596 0.415336877 0.64904213 -0.637092292 198 198 198 
405.39502 840.278015 417.704926 -0.0753135979 0.733597577 0.675091386 193 193 193 
447.679108 847.049744 389.323151 0.423158675 0.892246723 0.155185893 198 198 198 
494.007263 801.267883 350.985168 0.8114658 0.434970945 -0.388794243 163 163 163 
439.868713 813.57019 437.752747 0.36544764 0.436123878 0.822142959 240 240 240 
484.999146 811.91687 404.916168 0.856584251 0.462307751 0.227107301 236 236 236 
451.148895 845.029358 393.98233 0.390768766 0.905528188 0.162950382 118 118 118 
492.863007 806.965149 370.314575 0.721253574 0.692251623 0.0167508237 128 128 128 
418.256653 839.79126 419.899231 -0.0635127872 0.750118136 0.658309877 158 158 158 
493.173828 802.314331 380.307098 0.819209337 0.521835506 0.237368822 167 167 167 
486.59729 806.020325 414.456665 0.802421153 0.289002448 0.521193504 189 189 189 
447.05188 814.283813 435.131073 0.293686658 0.521992385 0.80081588 53 53 53 
478.043579 823.965088 394.04892 0.815542817 0.569140971 0.104783893 67 67 67 
473.767151 816.805969 335.816254 0.670482397 0.549799263 -0.494457245 255 255 255 
441.850189 845.078735 405.223022 0.249669746 0.919589221 0.303626299 212 212 212 
432.602936 844.042053 415.655365 0.104866043 0.832100511 0.54500246 103 103 103 
504.015289 778.65564 385.203705 0.73851645 0.655239582 -0.152132079 164 164 164 
424.883728 856.223267 382.874481 0.1664536 0.984183908 0.0615932345 77 77 77 
477.808685 811.085205 420.006531 0.47601822 0.71821326 0.506731868 245 245 245 
512.725037 769.691772 394.149567 0.585587919 0.791259289 0.175491363 17 17 17 
412.757263 838.805847 421.385864 -0.136976004 0.709766269 0.690922379 79 79 79 
454.844513 826.884766 326.288239 0.415236115 0.652852893 -0.633285463 223 223 223 
499.978302 793.388672 362.66214 0.984313071 0.0668454692 -0.163783431 210 210 210 
453.973022 807.107117 435.943695 0.338884205 0.409345925 0.846038699 67 67 67 
455.410553 842.440186 377.74527 0.550573707 0.834181547 0.0338454619 236 236 236 
484.26059 798.551453 337.621155 0.841535926 0.182173878 -0.50435406 255 255 255 
454.765839 817.975403 431.061768 0.324665248 0.468386024 0.820315242 213 213 213 
435.654022 847.534668 405.822845 0.285996914 0.882544875 0.372514486 224 224 224 
486.083527 808.428894 410.181213 0.825101554 0.430493653 0.364329159 59 59 59 
462.708405 788.949829 316.18399 0.501337469 0.141032875 -0.853194356 85 85 85 
458.934937 840.209229 361.792633 0.564280987 0.803029418 -0.191700071 253 253 253 
454.463531 844.727966 394.694366 0.453112811 0.879839361 0.143756717 165 165 165 
444.774811 813.151733 436.014038 0.256650358 0.51601994 0.817054033 181 181 181 
497.250854 795.124817 351.411316 0.850189507 0.319374174 -0.418067604 205 205 205 
474.402832 827.869202 373.862854 0.746001184 0.663675725 -0.0540232807 205 205 205 
426.01886 844.927673 416.114075 0.112902969 0.821692884 0.557754576 137 137 137 
448.363037 848.420288 370.724854 0.444127142 0.889634609 -0.105930462 188 188 188 
475.203613 776.441345 320.543701 0.579228342 0.0218511708 -0.814962208 183 183 183 
439.922913 848.950439 397.790802 0.31082952 0.914825678 0.257829249 75 75 75 
476.736237 817.414978 339.578247 0.642865598 0.625875354 -0.441311747 217 217 217 
486.391846 807.208679 413.317322 0.812679291 0.329169065 0.475622267 236 236 236 
473.903351 818.963501 417.148621 0.566787302 0.675206363 0.470967323 133 133 133 
472.184814 816.446716 421.331116 0.561233401 0.562347293 0.606972218 168 168 168 
487.787964 812.162964 385.656494 0.784381211 0.581297994 -0.213645503 114 114 114 
488.852966 808.70752 380.476471 0.736238718 0.60403049 0.300928414 249 249 249 
456.242157 825.620117 324.002533 0.401977569 0.638583064 -0.656319737 109 109 109 
472.585236 814.957458 423.983704 0.562462926 0.557137668 0.610625148 201 201 201 
487.580048 803.20813 343.415253 0.825336933 0.340970993 -0.4492172 173 173 173 
461.936554 817.25116 428.009674 0.339969456 0.589250147 0.732966781 168 168 168 
510.509369 771.638611 396.358459 0.47366935 0.792325556 0.380759954 92 92 92 
464.132355 837.155212 366.202789 0.625043392 0.769342422 -0.132452667 229 229 229 
406.722412 843.593506 414.699371 -0.0985628217 0.811514378 0.575969577 38 38 38 
459.22113 837.530273 408.188141 0.5252859 0.754998028 0.3924402 124 124 124 
460.875244 809.282288 316.963287 0.474085838 0.357758105 -0.804169118 232 232 232 
435.214264 848.159241 405.623077 0.28308776 0.882714033 0.373635858 198 198 198 
433.102081 849.356506 352.921265 0.250344753 0.927981317 -0.275682688 95 95 95 
515.279114 760.938232 385.809296 0.555950046 0.300899416 -0.774833262 240 240 240 
459.6008 840.672363 365.034058 0.561476767 0.816537917 -0.133122072 255 255 255 
438.416626 826.076355 430.540375 0.121989042 0.634030521 0.763686717 238 238 238 
495.077271 802.95929 362.13446 0.829964101 0.507598937 -0.230547234 150 150 150 
456.87619 831.062195 334.643097 0.414615571 0.745664954 -0.52163893 255 255 255 
466.100006 808.257446 432.116516 0.406624019 0.388772786 0.826873362 218 218 218 
495.213318 800.767334 393.050201 0.934756935 0.335553229 0.119088992 209 209 209 
473.915314 826.24292 399.61322 0.752342403 0.619205236 0.224796891 255 255 255 
478.939331 815.742249 412.895966 0.616016269 0.632323503 0.469109684 80 80 80 
481.547821 802.473816 332.503662 0.760124683 0.288302094 -0.582174778 228 228 228 
479.153992 812.637817 334.533539 0.722614288 0.457996905 -0.517458856 182 182 182 
488.881592 807.517151 409.385101 0.864735365 0.342232406 0.364941508 254 254 254 
490.926117 809.278748 391.568634 0.84515202 0.531394958 -0.056382671 241 241 241 
450.171112 846.168762 392.941711 0.401442587 0.903408408 0.149711728 182 182 182 
416.832581 809.585083 445.852753 0.00988014974 0.367334545 0.929371476 120 120 120 
488.926758 808.938171 384.831482 0.83454901 0.47623235 -0.271006405 88 88 88 
481.677856 810.658813 415.882751 0.677816212 0.634272933 0.371447027 196 196 196 
486.260559 788.973938 331.837128 0.668828011 0.291305423 -0.682739913 143 143 143 
453.486481 797.809326 311.129425 0.34606269 0.224513218 -0.911057115 130 130 130 
475.329773 778.572021 321.44043 0.652477264 0.098176375 -0.751263678 125 125 125 
461.887634 833.415527 412.446655 0.520133913 0.696905851 0.493684471 225 225 225 
460.268616 838.880859 359.253876 0.618213117 0.759061337 -0.20282492 173 173 173 
452.162811 845.847351 385.057861 0.466407418 0.884492993 0.0134857399 197 197 197 
490.368652 805.52356 401.439789 0.830705464 0.364761591 0.420124471 87 87 87 
449.468597 839.726807 342.561523 0.474945903 0.788838744 -0.38978225 236 236 236 
455.179108 830.867981 330.285187 0.51624763 0.679556072 -0.520489752 15 15 15 
456.059326 843.180542 373.646759 0.64087075 0.767089486 -0.0290231016 241 241 241 
490.420685 808.679077 393.891632 0.835168004 0.547673345 -0.0441920049 227 227 227 
436.053741 851.615479 359.396515 0.237400115 0.939236403 -0.246919066 207 207 207 
452.965515 803.131836 312.292755 0.328259706 0.14262557 -0.93370676 144 144 144 
447.34613 826.46344 320.704895 0.352280378 0.646923006 -0.676005363 171 171 171 
491.013275 808.276672 386.284454 0.814521849 0.429222882 -0.384613961 129 129 129 
515.725098 768.279419 395.411377 0.642626345 0.76214087 0.0677225739 255 255 255 
479.063995 807.673035 424.519775 0.61056757 0.395846069 0.685780287 204 204 204 
453.04953 824.479187 323.880432 0.389792889 0.637786627 -0.664172471 255 255 255 
486.818695 807.605286 409.706757 0.835139692 0.390885264 0.386556864 198 198 198 
420.813416 825.627563 433.550018 0.133711979 0.684978187 0.715913534 232 232 232 
490.848389 807.503479 387.670807 0.840116262 0.487826705 -0.235662356 52 52 52 
424.442749 822.491089 438.533173 0.194748044 0.631994545 0.750137329 97 97 97 
447.505859 825.638184 321.580048 0.349633753 0.653685689 -0.670923531 237 237 237 
468.339386 810.00354 431.138336 0.436300486 0.460646361 0.77325803 245 245 245 
499.136261 787.542114 355.98822 0.984048188 -0.169241145 -0.0557962656 219 219 219 
445.866333 849.37915 382.561646 0.428403348 0.902186513 0.051067777 232 232 232 
495.748962 782.89679 340.746246 0.810530126 0.0889907479 -0.580028594 253 253 253 
477.383667 825.266174 362.689545 0.724587798 0.681152701 -0.104384035 244 244 244 
469.968384 825.141174 341.424286 0.579706848 0.733252764 -0.355784625 91 91 91 
457.736847 841.007507 358.467773 0.58659488 0.781623483 -0.21128878 88 88 88 
494.636322 804.631775 362.401672 0.773692727 0.598485053 -0.205860794 250 250 250 
491.887177 808.708618 392.544495 0.849004865 0.525527239 -0.0523689315 214 214 214 
495.692627 793.512085 350.227386 0.825192571 0.332915455 -0.455951631 108 108 108 
459.176849 799.561707 313.877655 0.423601627 0.0850864947 -0.901109219 117 117 117 
472.16803 774.349487 319.427155 0.470643401 -0.0112964557 -0.882414222 136 136 136 
497.397095 782.964478 347.353638 0.986830175 0.0300474707 -0.160058081 67 67 67 
437.712402 833.850586 423.216888 0.197906911 0.601601839 0.774067879 170 170 170 
409.872101 838.457642 421.786743 -0.0779572278 0.730117619 0.678378522 216 216 216 
442.491669 823.05127 316.282196 0.336675912 0.58299619 -0.739432693 247 247 247 
435.337799 851.447388 388.992554 0.294357538 0.942178965 0.157782093 172 172 172 
492.604584 787.532288 340.959503 0.783520639 0.443094701 -0.435338736 191 191 191 
437.252502 839.20343 334.0849 0.233844936 0.825365126 -0.513436317 80 80 80 
417.67926 852.923401 394.865356 0.0171278957 0.961108804 0.275495231 210 210 210 
435.607849 844.142822 412.548492 0.180761844 0.891667962 0.414098233 140 140 140 
435.024719 853.323608 367.416809 0.265415728 0.956297636 -0.120501883 166 166 166 
448.947388 845.71405 391.617706 0.396992087 0.902442455 0.167289212 255 255 255 
419.928925 845.588562 416.100342 0.0226335358 0.807744324 0.58890748 147 147 147 
467.224762 813.277039 429.163605 0.393678397 0.62097156 0.676341951 191 191 191 
437.923248 833.78302 424.025116 0.215721726 0.581001282 0.784446836 206 206 206 
458.033783 838.191223 407.904907 0.448419005 0.818616748 0.353434563 129 129 129 
446.951111 847.440063 378.356293 0.447741389 0.89353615 0.0326682813 173 173 173 
491.312592 805.79895 385.726563 0.839349985 0.453033686 -0.298183262 227 227 227 
456.553009 844.570496 370.419556 0.609969497 0.792454958 -0.00253762444 60 60 60 
492.896545 798.21106 347.069824 0.851555467 0.247397959 -0.46245417 218 218 218 
434.941681 845.183777 413.3974 0.181223348 0.875680089 0.447664559 80 80 80 
422.030731 854.780334 384.765472 0.0756658614 0.97943306 0.186246157 240 240 240 
488.567841 803.709778 347.985046 0.838330567 0.454996675 -0.300615937 53 53 53 
490.671051 809.076599 391.327484 0.839469731 0.540906131 -0.0531844385 172 172 172 
497.579803 796.094421 375.200317 0.871493042 0.336049736 0.355549157 155 155 155 
495.833069 801.431335 364.681854 0.879395008 0.405907303 -0.247669086 125 125 125 
443.973572 848.586853 381.570282 0.430595398 0.901364386 0.0457445718 249 249 249 
439.657898 835.591675 329.599335 0.222695127 0.755731285 -0.61545521 118 118 118 
484.629028 803.301453 336.862671 0.794963121 0.342579603 -0.499781251 127 127 127 
438.302429 821.002808 313.775452 0.287638217 0.594725192 -0.750296712 111 111 111 
462.696411 820.95105 424.722809 0.463843375 0.501632452 0.729885578 199 199 199 
459.619751 832.263672 336.230988 0.544917405 0.76522857 -0.342366129 144 144 144 
419.007965 821.823059 310.865662 0.109162472 0.547556281 -0.829212368 155 155 155 
458.381012 829.728149 334.25061 0.477604985 0.723324001 -0.496083379 104 104 104 
498.336365 788.299011 358.140594 0.987145782 -0.157282948 -0.0174909774 43 43 43 
451.793884 845.464722 384.910034 0.468979985 0.882282436 0.0243676845 218 218 218 
435.216064 836.884399 328.840088 0.290201545 0.792608321 -0.535203874 184 184 184 
433.190765 836.245117 323.735474 0.169618607 0.718604326 -0.674099684 255 255 255 
479.073792 790.69696 327.421631 0.760710716 0.0297622662 -0.648244977 233 233 233 
495.755219 802.128784 353.485229 0.810589015 0.535435915 -0.236656204 147 147 147 
505.467499 775.232544 389.639069 0.651476741 0.713334799 0.258113563 255 255 255 
496.360229 789.300293 387.705902 0.802026629 0.452313721 0.387715161 251 251 251 
476.147766 778.434937 322.064728 0.678365469 0.108675122 -0.726060927 102 102 102 
496.718842 790.76178 380.196625 0.962695181 0.117320135 -0.243849441 107 107 107 
457.625519 842.246887 369.556 0.610734403 0.791947484 0.00208766852 246 246 246 
489.672424 809.249573 378.828156 0.752430677 0.611575544 0.243446171 212 212 212 
486.97049 789.406189 334.106506 0.729593754 0.243181854 -0.63908416 245 245 245 
501.463043 780.486328 389.720459 0.798107684 0.58285737 0.136776268 67 67 67 
491.552368 806.595886 402.774597 0.863058865 0.334490836 0.375187635 176 176 176 
486.765839 811.730408 403.056274 0.850777268 0.469911993 0.231965989 255 255 255 
440.181152 827.541199 319.982941 0.299907565 0.653417826 -0.695149302 88 88 88 
438.06427 824.542114 430.023773 0.149615109 0.650491953 0.744203448 211 211 211 
486.976379 810.459412 400.134918 0.745989978 0.613841772 0.256728411 255 255 255 
505.514832 775.688416 390.753967 0.620039821 0.749601901 0.228156567 237 237 237 
487.117004 812.631897 400.192902 0.659354687 0.741824508 0.121979892 180 180 180 
412.03833 844.676575 416.43396 -0.0809617788 0.778432667 0.621748745 107 107 107 
484.978394 814.864624 362.696503 0.864055216 0.50170064 -0.0261036865 162 162 162 
520.42395 761.641052 390.497559 0.603860736 0.537329912 -0.589126289 207 207 207 
448.113129 840.856567 344.243195 0.459974349 0.822158098 -0.334793359 218 218 218 
447.642914 846.760315 391.013397 0.401895553 0.899930239 0.169274226 255 255 255 
493.41568 805.638794 363.745453 0.649366796 0.760457039 -0.0136360433 239 239 239 
511.682007 765.839233 383.852966 0.581267476 0.280594736 -0.763738394 183 183 183 
506.461914 770.918274 399.312317 0.0922908559 0.555677652 0.826493442 255 255 255 
486.982422 812.464783 394.250977 0.708556831 0.700669408 -0.077225551 186 186 186 
436.196014 831.643005 425.512665 0.244144559 0.551187754 0.797852933 77 77 77 
499.016541 785.794617 383.302277 0.954742193 0.289390028 0.0152071929 255 255 255 
476.626343 777.34668 321.466492 0.637590349 0.0942352787 -0.764269233 85 85 85 
460.602722 839.326233 361.146973 0.665553212 0.71916306 -0.199364871 14 14 14 
475.523224 805.129944 326.671143 0.697639585 0.296314359 -0.651319027 134 134 134 
450.199158 848.48175 370.50415 0.460731059 0.880522728 -0.110753521 106 106 106 
480.415039 811.172729 420.082336 0.615977705 0.653126776 0.439707905 112 112 112 
484.339996 814.53125 401.476959 0.70586735 0.697082877 0.120136932 238 238 238 
428.515472 846.887573 412.032776 0.166173637 0.870024383 0.462415755 241 241 241 
455.933838 842.690552 371.608734 0.616885424 0.786934495 0.00787875801 215 215 215 
442.574951 850.227661 373.173798 0.418748587 0.906920135 -0.0429095849 46 46 46 
465.665924 835.921997 364.877869 0.583919406 0.810096979 -0.0515368618 54 54 54 
451.379883 825.996887 322.863159 0.380639225 0.652875423 -0.654729068 92 92 92 
465.941071 813.14502 427.500732 0.454402804 0.591062367 0.666411757 154 154 154 
415.768768 838.825806 422.485016 -0.0875468999 0.729648769 0.677693784 101 101 101 
453.157135 843.738342 359.651764 0.505694568 0.840391636 -0.194707572 193 193 193 
414.11261 847.72345 412.381256 -0.0509687029 0.835436761 0.547167122 187 187 187 
449.349335 840.1828 343.145386 0.463075399 0.818262398 -0.340425342 30 30 30 
431.199493 848.139709 406.93573 0.230835617 0.892255425 0.387149036 24 24 24 
426.527283 854.365234 391.085663 0.176969856 0.9617275 0.208147869 191 191 191 
479.815033 822.011475 390.38382 0.824779212 0.556453049 0.0938106254 233 233 233 
490.740875 794.55365 340.182465 0.842805982 0.230948508 -0.483947009 221 221 221 
448.132477 830.034241 325.041901 0.356697589 0.655082583 -0.665755749 107 107 107 
507.558746 772.685364 385.940277 0.715391994 0.588262558 -0.373037845 121 121 121 
416.171509 824.234314 437.173218 0.0597942397 0.703142226 0.706285715 152 152 152 
459.641144 833.169617 344.423004 0.548120141 0.768887043 -0.329264522 139 139 139 
482.28595 784.215027 328.721252 0.487840891 0.261431187 -0.832391739 246 246 246 
485.435089 812.686584 405.822357 0.831435442 0.486228883 0.258758932 77 77 77 
449.541565 847.869568 389.70578 0.439867854 0.886976957 0.139010832 141 141 141 
446.764496 849.551819 380.627991 0.438961744 0.897644639 0.0383806042 214 214 214 
448.193634 845.19165 355.816833 0.479787141 0.840201139 -0.25266242 209 209 209 
481.009735 817.374939 349.980072 0.755746543 0.581974864 -0.297344059 184 184 184 
432.656677 848.214111 409.156097 0.233022958 0.878041744 0.418025494 241 241 241 
439.775604 852.408203 382.945282 0.336623698 0.939950109 0.0565733686 158 158 158 
458.378174 829.437256 330.049561 0.377226055 0.736226499 -0.56229496 151 151 151 
426.01178 818.567993 309.330414 0.229074985 0.48669365 -0.842979252 81 81 81 
507.936615 773.322144 389.290924 0.583197534 0.79917419 -0.142055243 243 243 243 
457.566956 818.440369 429.225159 0.407560229 0.411277711 0.8154459 231 231 231 
447.24939 844.573608 401.53772 0.378651977 0.890281081 0.252970159 127 127 127 
493.3125 801.647278 373.986176 0.880738914 0.403444111 0.246641204 132 132 132 
438.439667 830.33136 322.408295 0.21421206 0.730478466 -0.647662103 109 109 109 
476.987976 811.828003 419.670929 0.467935264 0.724247813 0.506615639 162 162 162 
506.641418 776.312256 387.010345 0.688935459 0.711619437 -0.1241173 198 198 198 
447.990234 824.559998 320.472321 0.347719669 0.638147473 -0.686653674 152 152 152 
481.05661 788.166321 330.367828 0.532021523 0.267492414 -0.803289533 245 245 245 
495.138 801.645752 393.700531 0.951770425 0.284707367 0.107658789 253 253 253 
428.112823 846.045471 410.937805 0.139267594 0.862104177 0.486991167 197 197 197 
450.220612 838.528015 343.151642 0.458078414 0.819326758 -0.344861746 250 250 250 
492.058044 795.834106 342.325775 0.836870611 0.213071346 -0.502908766 198 198 198 
405.617615 799.767883 450.095795 0.0276153088 0.343648911 0.938602746 136 136 136 
495.808655 795.596497 385.714661 0.630695701 0.341590792 0.696914673 160 160 160 
484.235718 807.976074 416.275146 0.841074884 0.344133407 0.414335608 186 186 186 
509.310455 760.556885 381.940857 0.429124713 0.164102167 -0.888104796 119 119 119 
437.112213 848.9823 398.396057 0.29814288 0.911408722 0.283462912 86 86 86 
437.143555 820.951111 314.630829 0.282914102 0.599666357 -0.748185754 143 143 143 
433.180145 822.126282 312.92572 0.118238091 0.579399407 -0.806263328 213 213 213 
447.609589 848.257751 369.006958 0.439808965 0.891701102 -0.106812969 239 239 239 
458.558838 840.926941 362.608429 0.587676704 0.787205279 -0.184119374 241 241 241 
426.803009 844.395691 415.280914 0.115828291 0.846678615 0.519137979 203 203 203 
455.595978 831.910889 334.9487 0.443125635 0.765691459 -0.466265768 245 245 245 
458.757874 836.512817 349.941772 0.563212037 0.785683155 -0.255767614 210 210 210 
503.210938 778.917542 390.427765 0.735603929 0.622678101 0.262608558 118 118 118 
499.696289 792.057861 363.256073 0.977963269 0.200586453 -0.0499178022 13 13 13 
469.377045 812.758179 426.212372 0.497937083 0.628093302 0.597913206 127 127 127 
434.648773 823.630066 312.128876 0.237268984 0.611718535 -0.753958881 162 162 162 
498.657318 795.09552 369.129395 0.92965889 0.357548505 0.0834867656 250 250 250 
429.693695 846.096863 411.006592 0.178400815 0.869593143 0.458461374 226 226 226 
448.003784 839.766846 341.615356 0.435296178 0.815421939 -0.381175578 133 133 133 
459.308136 837.955994 349.799377 0.562903225 0.786546469 -0.25359261 217 217 217 
445.107208 847.030762 357.551483 0.392920852 0.89679265 -0.202472717 132 132 132 
486.621002 811.647339 407.918488 0.76037693 0.546380877 0.351465076 243 243 243 
499.546417 788.054016 383.105408 0.982157588 0.152431235 -0.0969854891 255 255 255 
432.001923 847.60675 408.076111 0.248475358 0.880240977 0.404240519 178 178 178 
418.652374 826.698669 434.631195 0.103472114 0.685738385 0.720421433 230 230 230 
447.812622 846.538696 394.391083 0.388067126 0.905813217 0.169856757 233 233 233 
438.263641 824.834839 431.539734 0.152736634 0.645804405 0.747567534 255 255 255 
500.689911 770.981567 400.135956 0.124151044 0.604615271 0.784727335 255 255 255 
492.007019 796.780945 345.1922 0.802234232 0.261082441 -0.536568284 231 231 231 
417.149628 850.049133 407.331696 -0.0352916643 0.895956039 0.442411542 176 176 176 
440.933472 813.877502 438.855743 0.375660539 0.429906726 0.821351588 254 254 254 
497.402069 783.571655 349.059235 0.987272024 -0.00373888435 -0.157144278 126 126 126 
499.221619 787.82373 357.24292 0.983844221 -0.179145336 0.011275325 186 186 186 
409.802917 844.8172 415.239868 -0.10167551 0.788267732 0.606825948 236 236 236 
450.941132 844.221436 352.471832 0.495752871 0.819671512 -0.286924183 115 115 115 
431.741821 846.821289 408.960541 0.227876678 0.882813811 0.41083324 225 225 225 
474.020142 817.296387 418.036316 0.583024979 0.601096749 0.546125531 167 167 167 
519.781738 764.931335 396.251648 0.618483305 0.785470545 8.27549957e-05 250 250 250 
489.938538 779.991394 335.609985 0.806856036 -0.0692998469 -0.587042689 212 212 212 
526.631226 755.226135 390.79303 0.782984614 0.429832637 -0.448625863 176 176 176 
423.972412 851.605469 403.648743 0.115161464 0.946228623 0.301476598 92 92 92 
412.541962 844.210999 413.874146 -0.0758638307 0.759887457 0.645762444 179 179 179 
489.83316 809.293274 394.162262 0.829077244 0.557275534 -0.0394661576 203 203 203 
495.073547 789.444946 343.256561 0.835105658 0.367599785 -0.408739895 206 206 206 
496.926697 798.226135 359.728455 0.87737745 0.477016211 -0.0494248867 132 132 132 
437.592468 845.533325 343.736328 0.307497919 0.852722645 -0.422413826 130 130 130 
440.623566 822.469543 314.183868 0.320321441 0.590862215 -0.740348101 185 185 185 
444.266235 850.223572 388.581146 0.366980046 0.922784269 0.117956832 251 251 251 
454.985229 843.850281 372.074158 0.611192524 0.791551411 -0.00572489901 35 35 35 
487.510223 776.995361 333.167053 0.724187732 -0.0016268976 -0.68501544 216 216 216 
427.835205 849.835632 346.410889 0.112616502 0.937073112 -0.330416352 95 95 95 
449.927856 838.450012 338.770264 0.517019033 0.730760813 -0.445807219 249 249 249 
435.945709 846.454285 405.846436 0.27941066 0.878726006 0.385836452 249 249 249 
496.665436 802.121887 366.380219 0.837750554 0.536858201 0.0921781063 150 150 150 
498.324585 796.625671 356.142303 0.91927284 0.316876024 -0.235371232 51 51 51 
456.710938 843.098572 374.626831 0.623918116 0.778588772 -0.0648476034 155 155 155 
525.626343 759.913269 393.890533 0.657137156 0.66674614 -0.346461356 177 177 177 
416.789429 832.177979 429.780853 0.0483021252 0.691278875 0.721011877 196 196 196 
509.587128 773.055664 387.741394 0.600266933 0.779781759 -0.1772701 219 219 219 
452.836151 834.304016 335.035156 0.380244255 0.826823473 -0.412892401 183 183 183 
512.909302 767.810913 386.155273 0.573418677 0.325359285 -0.751532972 249 249 249 
420.818115 845.553223 415.44574 0.043682456 0.823784947 0.564917684 120 120 120 
449.987915 824.990662 321.450439 0.376873761 0.64770025 -0.661930025 253 253 253 
459.182556 839.430908 364.12204 0.563064277 0.806420684 -0.181048945 211 211 211 
446.633575 847.713074 367.674622 0.447153598 0.887606978 -0.110351175 237 237 237 
448.815521 836.57428 336.247009 0.414611638 0.777180552 -0.472769976 243 243 243 
425.302979 851.310425 402.380707 0.161910355 0.933002234 0.319577634 150 150 150 
496.579254 800.839355 364.927795 0.902951121 0.378933609 -0.199978888 145 145 145 
507.950531 774.37384 392.405579 0.40752846 0.903401732 0.127779678 219 219 219 
471.446808 778.034851 319.904816 0.552314401 -0.0376788266 -0.832857311 202 202 202 
448.353638 841.316345 343.845062 0.454529285 0.814908266 -0.359466165 219 219 219 
449.473938 833.58197 332.098663 0.409655273 0.790711284 -0.454857111 58 58 58 
490.885834 804.399841 404.518066 0.885315061 0.377187967 0.271939993 209 209 209 
457.861115 799.435059 314.365204 0.401726454 0.0864984617 -0.911794782 135 135 135 
473.043427 780.013489 318.451691 0.557110846 0.0885711536 -0.825617671 216 216 216 
472.378784 809.569885 426.070221 0.418728828 0.647660434 0.636123478 127 127 127 
433.463043 853.003662 370.865021 0.327395201 0.936947942 -0.118566163 192 192 192 
436.694611 845.008911 410.883179 0.189464912 0.907301843 0.374733746 158 158 158 
459.631927 812.806824 320.016296 0.425432891 0.487629712 -0.762332201 231 231 231 
438.768707 828.192627 320.673706 0.22475867 0.702138603 -0.675004601 176 176 176 
435.327209 846.917908 343.497955 0.27795887 0.8766675 -0.391786188 89 89 89 
476.591675 801.969666 328.519562 0.673267484 0.267461777 -0.685578704 210 210 210 
443.430115 848.739014 394.775757 0.35155046 0.91174221 0.212052047 62 62 62 
505.187927 770.785339 398.107971 0.132291242 0.589910686 0.796014011 247 247 247 
434.473999 822.793579 312.315674 0.163981348 0.590720892 -0.789796829 237 237 237 
505.628418 775.108704 390.515991 0.650436521 0.717942894 0.247752503 255 255 255 
461.895508 812.263184 432.219177 0.258902669 0.538761795 0.801283836 187 187 187 
481.984131 810.603394 413.799927 0.661125183 0.634758711 0.399854839 232 232 232 
452.968689 802.510742 439.070496 0.420315176 0.402482301 0.813261032 255 255 255 
497.160858 786.664734 352.381775 0.985459268 -0.132651493 -0.102420785 237 237 237 
498.690399 794.057312 366.487488 0.970457315 0.199832112 -0.137029633 247 247 247 
415.887543 845.667419 413.814545 -0.0621589199 0.814431071 0.57692194 192 192 192 
427.797882 852.998657 394.701324 0.17885685 0.954239726 0.239399984 255 255 255 
499.309937 793.225403 367.8862 0.981316626 0.143474936 -0.114399493 49 49 49 
441.25824 848.006592 401.307526 0.2709831 0.915230274 0.297852069 190 190 190 
515.241638 764.770081 386.018066 0.61861825 0.341469705 -0.702869117 168 168 168 
492.561005 808.246155 389.934296 0.865035117 0.497794628 -0.056306649 134 134 134 
451.742676 847.065002 386.667633 0.474543691 0.878733635 0.0502283871 210 210 210 
498.8573 786.468689 382.825592 0.917011142 0.224922955 -0.327265739 160 160 160 
435.057037 838.661804 332.274353 0.249782711 0.808788598 -0.532189131 178 178 178 
472.105347 831.356628 388.377319 0.752851605 0.657478571 0.00911206752 219 219 219 
494.187439 801.974182 389.784546 0.94869101 0.312759519 -0.00228483975 254 254 254 
432.518097 853.583557 384.220276 0.266577899 0.960101843 0.0834660828 252 252 252 
451.101929 844.253113 355.929047 0.512642205 0.831622899 -0.213573098 197 197 197 
498.42572 791.961365 359.870514 0.98605752 -0.164440483 0.0140963253 151 151 151 
424.02243 829.70697 428.584747 0.160211414 0.649387658 0.742963791 200 200 200 
492.587311 787.686218 340.291016 0.810790122 0.391512305 -0.427162766 196 196 196 
420.539368 854.011475 393.63092 0.0906023458 0.965797067 0.243046656 158 158 158 
472.044495 778.399841 319.745667 0.561900854 -0.0754976645 -0.822735012 255 255 255 
509.219482 773.237427 393.985107 0.464253306 0.863266468 0.197421253 219 219 219 
423.146088 831.816956 427.834473 0.090441145 0.667562425 0.73892504 252 252 252 
496.678253 797.091309 373.080444 0.868951917 0.362082541 0.336890191 99 99 99 
496.312225 769.925354 401.836151 0.321879208 0.709279597 0.624986947 159 159 159 
429.304993 823.362122 434.141174 0.249025539 0.622442603 0.741391778 238 238 238 
451.033081 845.598938 359.568848 0.522463024 0.836137414 -0.166441679 17 17 17 
486.009369 812.839294 355.674713 0.86525774 0.487873226 -0.112470083 165 165 165 
486.5 813.472107 376.389191 0.839736819 0.533807695 0.0914913118 13 13 13 
476.546814 811.272339 423.554626 0.417752445 0.708782196 0.567124605 201 201 201 
445.863159 842.732483 349.215485 0.398574114 0.84465462 -0.357472241 94 94 94 
449.70163 838.488647 341.030334 0.500054777 0.765629053 -0.403408736 146 146 146 
460.84845 832.619263 344.811798 0.559039116 0.753812909 -0.345017791 66 66 66 
507.747742 755.764465 378.477631 0.519862056 0.368426085 -0.769954562 254 254 254 
490.848999 783.75592 335.677399 0.710589051 0.187718451 -0.676902354 213 213 213 
509.785217 773.288696 390.448486 0.611297011 0.777132213 -0.145861134 255 255 255 
496.860718 795.186951 351.804871 0.83823204 0.323021829 -0.439327806 149 149 149 
450.286407 841.886169 345.80719 0.455077052 0.816119492 -0.355928749 65 65 65 
426.647156 829.592163 316.578735 0.195381343 0.705829978 -0.680635691 137 137 137 
441.810242 850.7005 368.331848 0.337563485 0.93600291 -0.100924931 237 237 237 
429.645477 838.642761 328.931335 0.140574887 0.784461975 -0.603452861 225 225 225 
431.869232 834.493408 324.771179 0.173942238 0.706309438 -0.686033726 255 255 255 
439.373352 852.384949 374.828796 0.378099859 0.924766541 0.0363810733 146 146 146 
482.638 808.331909 417.838409 0.866274118 0.365316421 0.342293292 242 242 242 
435.887939 848.415955 403.080505 0.273149788 0.898386598 0.343687922 91 91 91 
477.880219 777.617676 323.550354 0.635014951 0.127374336 -0.761032403 196 196 196 
456.436554 803.013245 437.615112 0.206319958 0.346317083 0.915661275 255 255 255 
437.403839 849.368774 401.608948 0.261477351 0.898493171 0.35180226 253 253 253 
438.37085 851.847473 382.744568 0.347498953 0.934496999 0.076773271 142 142 142 
449.647491 845.200134 356.139954 0.50744766 0.833133578 -0.219418138 127 127 127 
482.856232 806.543457 420.448822 0.804212511 0.33421433 0.490898967 149 149 149 
470.578033 831.433655 396.718933 0.746469915 0.637974262 0.186463073 70 70 70 
439.487122 829.498535 322.77655 0.281261325 0.716240823 -0.638662338 150 150 150 
446.157166 848.238708 377.859924 0.443617731 0.895578444 0.033006832 207 207 207 
419.732452 825.191772 436.182495 0.110232309 0.718925595 0.686073899 255 255 255 
504.717712 776.170959 386.032654 0.69468832 0.710747004 -0.0897144377 249 249 249 
488.797333 806.967712 409.032043 0.870370448 0.341849476 0.351320386 254 254 254 
494.872375 798.580811 387.388428 0.933603406 0.0249197856 -0.357982457 64 64 64 
447.292328 834.812439 330.88797 0.360710919 0.798024952 -0.481857926 95 95 95 
436.173218 848.505005 404.868317 0.234140635 0.909079194 0.343608379 248 248 248 
451.198517 843.57312 352.673065 0.49892363 0.817121029 -0.288843811 174 174 174 
439.005402 851.504578 381.608124 0.338921398 0.939371467 0.0529373884 203 203 203 
445.851074 848.333435 360.893921 0.448408008 0.881543994 -0.146194443 73 73 73 
458.276062 808.76062 314.54007 0.395801157 0.339343846 -0.852790833 249 249 249 
502.217682 779.953064 383.353394 0.813428879 0.404038191 -0.416282594 209 209 209 
441.816467 836.282959 331.024811 0.360559881 0.797871828 -0.481610239 173 173 173 
519.67749 764.23584 390.650208 0.667368293 0.611482143 -0.423387527 255 255 255 
436.016418 853.407654 389.151367 0.308135867 0.935409427 0.172779679 119 119 119 
484.307709 814.630554 355.606049 0.880804956 0.464079708 -0.0918285623 119 119 119 
496.975647 788.754517 387.54541 0.819740176 0.445093483 0.360111892 255 255 255 
449.437042 837.583984 338.878448 0.51973784 0.734636366 -0.435900956 150 150 150 
504.579651 774.705872 395.904449 0.35253948 0.794900417 0.49304086 100 100 100 
493.023895 801.636292 391.737213 0.938319325 0.33640331 0.0777503401 166 166 166 
451.97641 842.412598 351.861237 0.482714117 0.831257701 -0.275346696 148 148 148 
424.680939 817.835938 307.574036 0.192992121 0.46974957 -0.861127377 208 208 208 
436.824219 846.055115 345.693787 0.282898635 0.886535525 -0.364997953 87 87 87 
441.180817 822.034912 315.691132 0.319505095 0.601387978 -0.731854916 142 142 142 
499.751984 795.868103 369.705536 0.898587823 0.365900815 0.239843354 157 157 157 
449.706665 801.414063 441.472107 0.344179899 0.286857009 0.893832624 181 181 181 
512.826477 771.037048 396.08313 0.493097246 0.828973711 0.261014104 101 101 101 
496.407013 792.790955 385.541626 0.767448485 0.260030627 0.582946479 175 175 175 
457.49527 805.256653 437.022705 0.227124378 0.348259032 0.909469187 74 74 74 
446.781769 846.76416 389.368774 0.409749836 0.895476937 0.174062192 149 149 149 
423.618164 819.056274 308.038086 0.180055827 0.468486816 -0.864706278 232 232 232 
494.593353 788.982239 342.166779 0.86644125 0.358457088 -0.349142373 160 160 160 
495.901184 796.12384 384.252594 0.596092582 0.368333668 0.714334667 242 242 242 
507.934967 758.677063 379.088684 0.370821178 0.339207321 -0.864729583 167 167 167 
425.711792 844.591614 335.941986 0.177807897 0.833544374 -0.522456169 45 45 45 
490.505005 782.847046 336.21759 0.741459787 0.13326183 -0.655105233 91 91 91 
424.856049 816.258667 306.32782 0.214379355 0.467432171 -0.857556581 189 189 189 
492.766724 798.902893 385.478241 0.950532854 0.238509193 -0.179225758 255 255 255 
524.38739 757.982544 391.433258 0.596911192 0.659168601 -0.456998169 247 247 247 
446.080536 848.632629 388.093903 0.39400506 0.90948844 0.131378159 132 132 132 
495.983063 791.597107 386.88269 0.881026566 0.394075215 0.25741151 246 246 246 
421.569763 855.627136 384.168915 0.0839833468 0.980001569 0.180012852 242 242 242 
428.825989 852.584717 392.45462 0.163111389 0.948553801 0.271055341 123 123 123 
485.75058 813.307312 366.767639 0.851009488 0.524681211 -0.0161588937 212 212 212 
440.435577 827.297791 429.886627 0.122585975 0.631865799 0.765073895 243 243 243 
463.704956 836.59021 365.994812 0.618175328 0.775153041 -0.130288541 255 255 255 
490.503479 805.071655 403.970306 0.888397276 0.380396724 0.255961597 184 184 184 
524.696899 758.961975 406.016357 0.709697247 0.621673107 0.32640031 80 80 80 
