ply
format ascii 1.0
comment created by gply, a Houdini tool.
comment converted from .[b]geo
comment for more information about Houdini, try:
comment www.sidefx.com
element vertex 588
property float x
property float y
property float z
property float nx
property float ny
property float nz
property uchar red
property uchar green
property uchar blue
element face 0
property list uchar int vertex_indices
end_header
-56.5775604 -131.560394 197.856171 -0.648877501 -0.25881201 0.715246081 0 255 0 
47.1384087 -155.856094 182.081467 0.652138591 -0.419298023 0.631436229 0 255 0 
59.0552063 -161.648148 96.7528305 0.568885028 -0.768033743 0.288377464 0 255 0 
-26.2387199 -198.729172 113.81459 0.0887432545 -0.968296051 0.229050964 0 255 0 
67.3755798 -153.926849 77.7655563 0.877682805 -0.368519008 -0.303478509 0 255 0 
-70.1160278 -170.774307 52.0552139 -0.894054532 -0.447431356 -0.007856532 0 255 0 
-81.1826859 -114.915977 172.032745 -0.848166943 -0.318956733 0.422669917 0 255 0 
-49.9653244 -168.644363 12.0725889 -0.75114882 -0.45721367 -0.476038069 0 255 0 
65.0238876 -162.110092 56.057991 0.779432416 -0.603579819 -0.167692885 0 255 0 
-64.8990402 -177.951981 50.9606247 -0.735633552 -0.670832336 -0.0900631398 0 255 0 
-2.33904147 -210.98262 63.171627 -0.252678275 0.721104503 -0.630220354 0 255 0 
2.97670269 -101.361938 221.653809 0.257018924 -0.128561616 0.95773679 0 255 0 
62.6483612 -109.436684 173.418701 0.901229024 -0.134303719 0.411054492 0 255 0 
37.3650665 -174.058792 175.671844 0.457470745 -0.657023132 0.598523557 0 255 0 
33.0575371 -177.106461 32.9140968 0.752749383 -0.597076714 0.277089357 0 255 0 
-63.893177 -179.359634 54.7945137 -0.605484068 -0.79499805 -0.0278854221 0 255 0 
-68.4001389 -171.225433 93.8715668 -0.836596131 -0.421575785 -0.346974015 0 255 0 
72.9781647 -145.128571 58.8329353 0.994329989 -0.0731620714 0.0764426664 0 255 0 
-40.2279053 -192.308609 55.4171944 -0.184579879 -0.918280721 -0.34953782 0 255 0 
20.1340084 -206.319641 61.6738548 -0.390579224 0.701880991 -0.592579246 0 255 0 
36.4284363 -181.52771 54.2083969 0.571566522 -0.807653546 0.14355436 0 255 0 
20.0901814 -214.408951 73.9200974 0.707824171 -0.667012513 0.228045911 0 255 0 
41.4363098 -172.145279 174.106369 0.540619791 -0.596580982 0.593041062 0 255 0 
-33.4576874 -161.326263 197.596329 -0.381252706 -0.500000715 0.77755326 0 255 0 
0.562723041 -206.254211 88.950882 -0.855386555 -0.446056157 0.261831433 0 255 0 
29.1083088 -193.831085 71.2152634 0.754335225 0.153397739 0.637575209 0 255 0 
9.89176655 -196.468445 151.915833 0.17641817 -0.941766679 0.28582257 0 255 0 
10.8692789 -199.835907 17.5488338 0.275319368 -0.862090647 0.425147027 0 255 0 
-18.349041 -194.454651 106.356888 0.542389631 -0.603711069 -0.573340476 0 255 0 
-23.4441013 -185.989365 177.015488 -0.165460616 -0.74260807 0.648899555 0 255 0 
44.3708496 -176.445786 88.1879654 0.410829306 -0.789041281 0.454621732 0 255 0 
72.9252625 -120.589874 138.16777 0.994364738 -0.0811434239 0.0552313365 0 255 0 
63.5921059 -164.16597 88.2990875 0.753565192 -0.597843885 0.271577865 0 255 0 
52.0358353 -123.948982 188.431763 0.774324536 -0.149989486 0.614728391 0 255 0 
28.7159214 -186.073471 20.5909348 0.671177804 -0.702364147 0.23161006 0 255 0 
-6.7572031 -104.659714 222.229538 -0.0142335678 -0.211608574 0.976972878 0 255 0 
43.0935249 -169.969193 174.686417 0.57478106 -0.577345431 0.579668581 0 255 0 
-17.310112 -167.426788 198.023468 -0.120355226 -0.656331301 0.744427383 0 255 0 
-68.0161514 -174.274002 56.5040207 -0.816793919 -0.573423684 0.0612666421 0 255 0 
8.87443924 -202.148895 126.920723 -0.0601604022 -0.997480035 0.00400201045 0 255 0 
-75.90979 -160.614517 106.633514 -0.839363933 -0.527711034 0.129199654 0 255 0 
-80.0044861 -145.316971 98.3574066 -0.940447986 -0.337987274 0.0193334371 0 255 0 
53.8819275 -176.391342 108.394821 0.665688455 -0.611713588 -0.426050067 0 255 0 
65.4188004 -155.474625 39.5336113 0.736228347 -0.524756134 -0.425516963 0 255 0 
-83.0738297 -145.069092 109.809349 -0.956537187 -0.217777207 -0.191310719 0 255 0 
45.6529083 -177.690704 161.645157 0.607092261 -0.555928648 0.566973329 0 255 0 
71.8428955 -130.716476 53.7519264 0.949655116 0.271544486 0.156211585 0 255 0 
44.619503 -163.603546 179.250595 0.614850998 -0.484693468 0.621582568 0 255 0 
63.9418564 -163.199966 77.9937744 0.853240728 -0.35633406 -0.380083382 0 255 0 
-72.5845795 -160.849625 67.3292465 -0.986598074 -0.155733079 0.0476946756 0 255 0 
-30.235569 -193.2892 48.7205582 -0.417900324 -0.89934206 0.126865745 0 255 0 
40.0927353 -175.560806 171.685516 0.496923447 -0.650225818 0.574532986 0 255 0 
68.5539322 -145.171997 121.281555 0.912804246 -0.332244724 0.236476645 0 255 0 
2.49907351 -184.365372 177.959473 0.0921185017 -0.833513856 0.544580162 0 255 0 
63.7497597 -153.698715 35.0451508 0.723400176 -0.509314001 -0.466058046 0 255 0 
22.0723896 -196.646484 142.298584 0.0902287737 -0.866885662 0.490101993 0 255 0 
-72.1080246 -161.461899 133.654327 -0.817262053 -0.572660267 -0.0624348745 0 255 0 
40.9088516 -169.777573 177.019852 0.558488846 -0.592653155 0.580158412 0 255 0 
19.8419094 -180.287048 178.122665 0.191949308 -0.752400398 0.62986958 0 255 0 
-59.2763214 -182.971573 88.6187363 -0.71917963 -0.690595269 -0.0687692836 0 255 0 
22.4476948 -196.247375 11.2368355 0.666923523 -0.721376479 0.184884027 0 255 0 
-28.5910339 -158.367172 201.677582 -0.334104836 -0.483656287 0.808937013 0 255 0 
-73.0778503 -130.910965 176.33812 -0.798687518 -0.317937464 0.510800421 0 255 0 
-41.0069656 -100.831467 216.091034 -0.381496936 -0.149573922 0.911900997 0 255 0 
76.3383636 -127.82061 105.13192 0.997798264 -0.0132088121 0.0605269 0 255 0 
19.4039707 -184.379517 -7.01463842 0.40595904 -0.268445253 -0.871551573 0 255 0 
19.0622692 -206.046204 84.9680405 0.890842319 -0.388434291 0.233566582 0 255 0 
55.8620911 -149.693176 174.974274 0.815357327 -0.290942997 0.500292659 0 255 0 
-20.1880817 -200.498016 119.793823 -0.0290210992 -0.710693181 -0.701849461 0 255 0 
-74.7698898 -149.727631 60.6026344 -0.947728157 -0.314108968 -0.0550856665 0 255 0 
-13.7376451 -199.002151 4.35096788 -0.421869814 -0.898071826 -0.121896483 0 255 0 
-80.7738571 -147.875687 129.65184 -0.854360104 -0.49932301 0.14068082 0 255 0 
22.7135563 -193.555756 58.4656029 0.711097956 -0.698162675 0.0376913808 0 255 0 
-72.4453278 -164.747528 52.6370544 -0.969127178 -0.244625092 -0.0295338873 0 255 0 
51.2326927 -126.107574 189.044662 0.776732802 -0.129783288 0.61616528 0 255 0 
29.1847935 -163.047318 190.733154 0.462486446 -0.583883405 0.666071415 0 255 0 
-48.340786 -178.056534 25.1277275 -0.497321844 -0.850284994 -0.171156734 0 255 0 
-3.91695762 -165.277161 199.725113 0.0868164599 -0.577788115 0.810945868 0 255 0 
-72.8884735 -102.735306 191.600479 -0.761063099 -0.16513586 0.627131939 0 255 0 
11.4379396 -217.844116 54.3392601 0.0334066823 -0.687351644 -0.723788083 0 255 0 
-8.58738708 -153.668152 206.63295 0.0486394465 -0.415262192 0.908364177 0 255 0 
58.249218 -161.774246 155.080643 0.927598238 -0.318784475 0.194585264 0 255 0 
16.034647 -197.404221 142.838806 0.207144052 -0.941859365 0.263420701 0 255 0 
69.08918 -139.974503 131.440979 0.960621119 -0.277124673 -0.00785404257 0 255 0 
-6.66007471 -201.710907 53.0611458 -0.290505886 -0.88318336 0.364951372 0 255 0 
-23.39361 -198.30806 106.496796 0.422583461 -0.905158639 -0.0104227522 0 255 0 
-82.1095123 -126.483101 162.988388 -0.880682766 -0.231482968 0.412521422 0 255 0 
-20.445776 -175.769836 189.473648 -0.145738795 -0.729290426 0.668402076 0 255 0 
-25.4147243 -192.614365 21.247961 -0.559734583 -0.827776313 -0.0279670935 0 255 0 
-67.8680115 -168.110962 37.1127777 -0.75982368 -0.485161781 -0.431781501 0 255 0 
67.7557983 -158.566666 84.7678604 0.905262053 -0.403713405 0.124138743 0 255 0 
-54.961937 -183.618698 42.8020287 -0.483402103 -0.850613713 -0.20435819 0 255 0 
-42.4555435 -194.41684 64.2556381 -0.343639791 -0.909399986 -0.23420769 0 255 0 
16.4587116 -150.780273 204.472122 0.315147579 -0.429626256 0.845317006 0 255 0 
-42.5753403 -171.907639 183.258987 -0.447716236 -0.637304544 0.626949072 0 255 0 
70.4248886 -147.136353 108.199478 0.888980269 -0.439920306 0.126441225 0 255 0 
-30.419651 -198.160141 70.7236938 -0.0888589844 -0.989782929 -0.0938896313 0 255 0 
63.7093048 -149.508209 148.162125 0.898243845 -0.327524662 0.292878419 0 255 0 
67.0555344 -146.438065 139.273651 0.930555046 -0.346199214 0.114241749 0 255 0 
-71.2102051 -167.209305 63.3272285 -0.926178396 -0.361137003 0.105849914 0 255 0 
25.0860901 -188.857147 0.427649409 0.676119983 -0.461924613 -0.573994637 0 255 0 
-14.7599468 -178.726486 -8.70107269 -0.197449476 -0.556133091 -0.806866825 0 255 0 
69.2919846 -139.921478 136.438919 0.965811491 -0.2577627 0.0150999557 0 255 0 
-41.6653671 -194.869598 138.952408 -0.543255448 -0.82280606 0.165633589 0 255 0 
-77.6445236 -153.288025 128.198883 -0.840555429 -0.536139607 0.0725884959 0 255 0 
-1.326913 -195.740784 158.507294 0.144123524 -0.946599722 0.283669353 0 255 0 
30.6744213 -183.12265 98.4737854 0.220815629 -0.843316555 0.488271952 0 255 0 
34.6453133 -193.057251 121.689827 0.376405627 -0.802212834 -0.462985337 0 255 0 
71.1506348 -150.654526 63.3515053 0.935333729 -0.292355001 0.198123187 0 255 0 
-11.8742218 -189.963531 172.403641 0.0199579634 -0.831057429 0.555767 0 255 0 
62.6924782 -160.078857 135.155701 0.923215687 -0.363749295 0.121949509 0 255 0 
33.135128 -116.525711 206.531342 0.490741402 -0.144700795 0.858965516 0 255 0 
26.1680527 -192.97995 49.7197609 0.746226966 -0.651542604 0.128606603 0 255 0 
45.3428078 -165.035675 177.277786 0.621188581 -0.532586396 0.574715257 0 255 0 
31.6851234 -186.671768 83.2874985 0.503166258 -0.789857328 0.349965245 0 255 0 
-78.5654755 -149.647995 98.1639328 -0.938706696 -0.344169438 0.0153392497 0 255 0 
63.6419716 -163.631134 68.6210556 0.82545495 -0.481212854 0.294591963 0 255 0 
-52.9858894 -133.819992 200.020462 -0.604863226 -0.290559471 0.741400778 0 255 0 
-63.1669121 -127.845146 192.529312 -0.729268968 -0.338995039 0.594228148 0 255 0 
-35.4258957 -185.554565 22.707655 -0.517289996 -0.75005877 -0.409907132 0 255 0 
73.6897888 -142.281403 89.3022842 0.975736678 -0.151873082 -0.149639308 0 255 0 
22.0954723 -195.151764 2.82600403 0.678110659 -0.615898013 -0.399746954 0 255 0 
34.3472748 -188.872864 115.406769 0.11720258 -0.904331326 -0.404386818 0 255 0 
-85.4505615 -127.912949 153.489273 -0.944349051 -0.204945669 0.257144064 0 255 0 
25.4483414 -199.898254 127.733223 0.355452389 -0.933813572 -0.0112242047 0 255 0 
-53.93256 -183.842514 137.398712 -0.778642118 -0.613144815 0.132251382 0 255 0 
40.4055481 -187.590485 111.729263 0.314616531 -0.929710031 0.18848142 0 255 0 
-51.2429466 -183.953262 150.912292 -0.739564538 -0.637625515 0.212701231 0 255 0 
-36.4741364 -189.523849 164.743393 -0.407020152 -0.820871592 0.400232732 0 255 0 
43.1668358 -165.518051 11.7093143 0.864476264 -0.424527407 -0.261909425 0 255 0 
49.5586128 -174.939117 53.4711914 0.45668301 -0.765744805 -0.45269841 0 255 0 
70.295372 -141.510681 37.6159973 0.882090271 -0.102558747 -0.458644539 0 255 0 
-76.7335587 -147.65155 156.80246 -0.863432527 -0.34890914 0.363912821 0 255 0 
70.8348007 -152.922821 58.2507324 0.871169984 -0.490653157 0.00809169002 0 255 0 
32.5054169 -171.642349 181.311584 0.351093769 -0.699541926 0.622148931 0 255 0 
28.7590485 -159.165466 193.946457 0.428442031 -0.484763354 0.761978269 0 255 0 
-46.5156555 -192.619034 114.215508 -0.402087748 -0.789461911 -0.462252796 0 255 0 
15.5115747 -160.881531 198.989563 0.281988084 -0.557095826 0.780880928 0 255 0 
7.28530502 -208.358871 51.7474098 -0.377993107 -0.0382434726 -0.921589851 0 255 0 
-7.77599955 -166.332977 199.181427 0.0291905142 -0.642799854 0.764857173 0 255 0 
-49.0401192 -178.700729 169.320892 -0.594358742 -0.67954874 0.429572046 0 255 0 
-73.2641678 -159.8564 135.438461 -0.827477336 -0.560932517 -0.0195838735 0 255 0 
21.0598049 -181.529083 176.154816 0.24664399 -0.763679683 0.596383512 0 255 0 
-15.200839 -197.851135 63.4132767 -0.914331913 0.129487067 -0.376838803 0 255 0 
47.2577972 -180.661407 63.7988129 0.404751599 -0.88861084 -0.214570194 0 255 0 
-70.7816467 -167.886978 104.864586 -0.725705564 -0.665876448 0.172600344 0 255 0 
21.3319397 -215.240265 62.9953651 0.834045053 -0.509655535 -0.210899487 0 255 0 
-72.5153122 -166.31813 84.0365219 -0.923792481 -0.375293195 -0.0704621226 0 255 0 
75.3010864 -117.787941 109.304283 0.97760433 0.0294695944 0.206557229 0 255 0 
-27.8353596 -189.112 171.061371 -0.242526412 -0.787593126 0.566192031 0 255 0 
-90.543335 -126.153732 124.011383 -0.923481822 -0.369783491 0.101091012 0 255 0 
-74.4768982 -158.938232 80.3097534 -0.898182154 -0.341355145 -0.276570201 0 255 0 
-56.3732796 -182.091171 120.959618 -0.810390234 -0.582291365 0.0550606474 0 255 0 
71.7876663 -110.964058 153.19809 0.971170068 -0.139251202 0.191301897 0 255 0 
49.6641159 -177.453735 152.732147 0.737921298 -0.65884465 0.138666183 0 255 0 
-20.6817799 -191.594025 94.7264862 0.0188739616 -0.995106697 0.0613874979 0 255 0 
63.4807701 -159.026306 127.369621 0.954238772 -0.297267735 -0.0084143104 0 255 0 
60.8884773 -169.403412 78.7907104 0.809672356 -0.582859039 -0.0579298958 0 255 0 
-8.96278 -139.437225 211.938248 0.0476589873 -0.300136834 0.952657402 0 255 0 
11.8899069 -211.980453 51.9004288 0.316332221 -0.10696964 -0.940032482 0 255 0 
71.1752625 -131.293991 135.873474 0.986443758 -0.148567379 0.0688539669 0 255 0 
26.6756458 -192.802933 79.0745926 0.759875894 -0.625950515 -0.169757456 0 255 0 
75.5119019 -119.478615 88.0123215 0.950829268 -0.257447511 0.169121921 0 255 0 
44.6825371 -176.527145 52.3363724 0.287341863 -0.839527786 -0.460130632 0 255 0 
75.9059753 -124.062042 95.2246475 0.952600539 0.123977408 -0.275949121 0 255 0 
74.1906586 -122.596931 91.2820358 0.99208653 0.0289641079 -0.103179231 0 255 0 
-70.5453644 -164.359207 120.060211 -0.768515587 -0.608683109 0.19510442 0 255 0 
-80.190979 -129.847031 164.837204 -0.855255604 -0.250628352 0.453306049 0 255 0 
3.3427906 -220.706238 70.5785294 -0.203150898 -0.896427929 0.39359796 0 255 0 
72.9870148 -145.178345 99.1160507 0.883947015 -0.456437409 0.0933630317 0 255 0 
35.7089806 -195.203598 126.541023 0.433479339 -0.808424473 -0.396682292 0 255 0 
2.617275 -204.095367 51.504097 -0.0300405566 -0.933039069 0.356849432 0 255 0 
-46.2756538 -195.764694 121.276337 -0.56767714 -0.812041759 -0.132510915 0 255 0 
-63.9854698 -165.546906 159.014893 -0.732965171 -0.596007705 0.327631205 0 255 0 
75.3817749 -133.976532 107.422272 0.965139508 -0.178094983 0.190710202 0 255 0 
-43.1870308 -148.757507 200.140076 -0.459731102 -0.424344152 0.779716492 0 255 0 
54.681118 -175.359848 80.4834213 0.595673919 -0.781046629 0.184589043 0 255 0 
-60.4386482 -177.409805 100.912575 -0.407107919 -0.90884167 0.089321889 0 255 0 
-52.5339279 -105.312607 209.376266 -0.537477434 -0.221162125 0.813546658 0 255 0 
-35.0678215 -197.639618 117.436531 -0.141028911 -0.908158362 -0.393982589 0 255 0 
-34.3815994 -120.458923 213.955658 -0.318894714 -0.234007999 0.918279886 0 255 0 
48.7263794 -149.099792 184.258438 0.669703603 -0.337065071 0.661720932 0 255 0 
60.1591606 -166.619019 130.012207 0.90388 -0.401607633 0.146871284 0 255 0 
21.0534916 -192.377121 114.685112 0.528598785 -0.370142698 -0.763134301 0 255 0 
73.4272461 -144.790817 51.6067543 0.98587501 -0.162210971 -0.0203623176 0 255 0 
-77.0083847 -154.228165 133.181503 -0.882379293 -0.469664812 0.00906761177 0 255 0 
-17.9021111 -196.176514 25.955719 -0.364723384 -0.918776095 0.149902076 0 255 0 
-26.8610363 -184.210022 -0.364277482 -0.529304564 -0.490440756 -0.691862941 0 255 0 
-26.1181698 -197.198654 152.588776 -0.301139206 -0.914180696 0.270498633 0 255 0 
-35.762516 -185.497299 17.4962406 -0.489914358 -0.853300571 0.176537424 0 255 0 
67.1142654 -110.296394 164.182434 0.898404777 -0.14687708 0.413461268 0 255 0 
30.3029594 -139.536102 201.944244 0.424289286 -0.314427316 0.849034786 0 255 0 
36.514122 -178.234436 17.0325222 0.83585155 -0.548340201 -0.00163078588 0 255 0 
-0.883006573 -128.187988 215.155701 0.0751868784 -0.316734552 0.945514202 0 255 0 
-46.4169464 -174.023911 13.3732977 -0.651125669 -0.596330881 -0.469072223 0 255 0 
74.534462 -138.742996 104.584106 0.938400626 -0.315769523 0.139336497 0 255 0 
-72.6972504 -104.778542 191.247665 -0.764342904 -0.195849925 0.614178181 0 255 0 
38.9296036 -187.790741 113.226456 0.258841097 -0.955660701 0.134726316 0 255 0 
-52.1127701 -181.660248 156.452271 -0.774061739 -0.599230528 0.203879923 0 255 0 
13.3504057 -219.218521 72.1520233 0.307575524 -0.899636149 0.303168297 0 255 0 
37.2982864 -187.43512 153.149887 0.468791783 -0.84398222 0.259398282 0 255 0 
-40.91679 -182.048965 17.2813797 -0.611252248 -0.78204149 0.116960317 0 255 0 
72.9539642 -115.614525 138.381989 0.999985635 0.00380667858 -0.00146193523 0 255 0 
-53.147728 -159.533829 185.815582 -0.640621424 -0.472820908 0.604795516 0 255 0 
-33.4993896 -191.525986 41.5441132 -0.464490771 -0.854445457 -0.232404858 0 255 0 
21.2032967 -204.039032 63.6423721 -0.546362877 0.670915663 -0.493469059 0 255 0 
-54.5574074 -111.512543 206.299667 -0.542768359 -0.211145625 0.812771082 0 255 0 
27.2235603 -167.283035 188.177094 0.430674165 -0.611979425 0.663045287 0 255 0 
-69.8257294 -160.085373 34.1917076 -0.872668803 -0.249474272 -0.419636279 0 255 0 
70.8087845 -152.581055 52.5689354 0.900148273 -0.424343586 -0.0971722305 0 255 0 
72.6367874 -110.323341 148.641891 0.983154237 -0.161645681 0.0832068473 0 255 0 
56.2766571 -176.69632 117.895897 0.819233537 -0.570310235 -0.0468158051 0 255 0 
-8.16760826 -147.343918 209.227005 0.0448706113 -0.325930774 0.943983555 0 255 0 
-78.5174637 -148.772476 77.5387039 -0.776007891 -0.598145247 -0.197798088 0 255 0 
66.1866074 -115.507935 164.820572 0.891834021 -0.150525793 0.426362664 0 255 0 
2.17815566 -200.808243 118.527267 0.270608187 -0.94951117 -0.145525932 0 255 0 
0.481904477 -153.064117 206.334457 0.106947362 -0.403104633 0.908702612 0 255 0 
48.383503 -165.119125 173.56987 0.674344003 -0.486754715 0.55471015 0 255 0 
-30.6570816 -107.789513 218.400742 -0.260816216 -0.210383385 0.941752613 0 255 0 
22.6700993 -192.400665 89.3111572 0.720045865 -0.368856609 0.587336779 0 255 0 
-57.6870956 -153.088028 184.394775 -0.763693929 -0.366193086 0.531579554 0 255 0 
59.3457375 -160.116928 152.262939 0.936655879 -0.304765075 0.172272146 0 255 0 
52.7787666 -104.51265 191.275146 0.766314447 -0.116554193 0.631804168 0 255 0 
-62.1063271 -172.6716 35.2497597 -0.48082453 -0.615912557 -0.623005271 0 255 0 
24.7287884 -122.32312 209.649963 0.395691156 -0.219710067 0.891448736 0 255 0 
-84.6556396 -135.709686 145.348404 -0.934402823 -0.320790648 0.154682338 0 255 0 
-25.19417 -190.44252 170.294952 -0.194941968 -0.819242537 0.538945913 0 255 0 
72.9505615 -119.783005 126.725815 0.999932528 0.00701559801 -0.00656424509 0 255 0 
46.1556129 -186.688919 118.880524 0.450276613 -0.8301121 -0.32844305 0 255 0 
10.5370817 -221.757248 64.762146 0.0481273159 -0.998111784 0.0327295996 0 255 0 
-7.17775345 -199.305313 37.445694 -0.180162624 -0.37727192 -0.90828371 0 255 0 
69.5041122 -138.895157 134.062027 0.961881995 -0.270686299 -0.0382536277 0 255 0 
-28.0230427 -186.607407 174.597015 -0.222379506 -0.790326953 0.570779443 0 255 0 
-75.0341263 -159.289551 82.6766052 -0.904500961 -0.359614581 -0.228076592 0 255 0 
34.1071777 -188.515366 109.711578 -0.0906247348 -0.965366781 -0.237719655 0 255 0 
73.5236435 -116.260658 121.945274 0.986874223 -0.00038814405 0.14963077 0 255 0 
60.9325523 -161.958862 110.604271 0.906146228 -0.326040298 -0.268979907 0 255 0 
20.4083328 -208.172089 59.7465439 0.142984003 0.559479475 -0.808936119 0 255 0 
1.91146016 -203.48114 39.6143379 -0.0438688546 -0.848371029 -0.52540648 0 255 0 
34.8947792 -151.921051 194.163147 0.519972086 -0.385393262 0.761965454 0 255 0 
-57.3099861 -184.5 88.9317322 -0.451399177 -0.854626358 -0.247324929 0 255 0 
24.5713291 -197.271942 140.70311 0.168920279 -0.84570837 0.504524827 0 255 0 
-82.0122681 -143.676666 136.780975 -0.898194194 -0.430563807 0.0862398818 0 255 0 
21.46278 -204.597931 79.9472122 0.903166175 -0.310123771 0.295746863 0 255 0 
-46.6060295 -191.556427 59.5753021 -0.351276934 -0.903683543 -0.244433075 0 255 0 
-67.7470093 -166.163895 144.519547 -0.752324879 -0.651964366 0.0913201123 0 255 0 
19.821413 -133.934799 208.526749 0.318720192 -0.256474197 0.912321448 0 255 0 
49.0710564 -182.389542 112.255203 0.624222279 -0.78036499 -0.029584568 0 255 0 
69.8832321 -127.353241 58.887043 0.933437526 0.255009711 0.252052575 0 255 0 
-35.3595734 -178.286224 3.82780743 -0.660429716 -0.504745781 -0.553370893 0 255 0 
33.1589851 -182.987122 13.4845715 0.847288966 -0.521418273 -0.0946665704 0 255 0 
-3.37945366 -198.994415 90.8389893 -0.475667536 -0.708973289 0.520012081 0 255 0 
17.7407513 -197.976288 118.040642 0.299047828 -0.871171832 -0.388024092 0 255 0 
-75.9560242 -160.106171 108.795013 -0.84158963 -0.529059589 0.108223371 0 255 0 
48.7007103 -173.629608 92.1545563 0.626773119 -0.776481986 -0.016781697 0 255 0 
-24.7169247 -204.075333 130.325897 -0.22333017 -0.974158466 -0.0151561713 0 255 0 
68.1245041 -126.780716 155.856796 0.903468907 -0.191809669 0.383151591 0 255 0 
74.8300934 -116.962944 92.0977402 0.927910984 -0.207250297 0.307183564 0 255 0 
-36.9111519 -104.915466 216.962204 -0.34337768 -0.162858412 0.924952269 0 255 0 
72.3215637 -122.217773 140.611023 0.976249635 -0.153199941 0.151872993 0 255 0 
8.064394 -207.653809 96.3273849 -0.117020175 -0.826856434 0.547142208 0 255 0 
15.2072306 -150.676971 204.904541 0.208308205 -0.408817261 0.887910247 0 255 0 
-43.0504189 -184.905609 29.3078957 -0.532468438 -0.711968541 -0.454061925 0 255 0 
-29.4774284 -191.82077 38.0187912 -0.225906983 -0.850803971 -0.472702026 0 255 0 
38.0732193 -169.317032 180.008713 0.507368565 -0.599376619 0.618907452 0 255 0 
17.9788036 -201.701889 95.0606689 0.855443597 -0.422307819 0.298179537 0 255 0 
-6.34461212 -202.329102 6.87562656 -0.316816658 -0.946959019 -0.0499691963 0 255 0 
-30.3541222 -189.672043 13.8401165 -0.534707367 -0.840420604 0.0843135938 0 255 0 
54.6483917 -111.106064 187.43045 0.822487056 -0.109573022 0.558006465 0 255 0 
26.1656322 -197.320786 139.781403 0.271461666 -0.877880275 0.393623233 0 255 0 
-45.7092781 -182.29921 29.286068 -0.671433032 -0.551639915 -0.491552889 0 255 0 
28.7781029 -172.636383 -4.07470512 0.445541233 0.107990898 -0.888256907 0 255 0 
59.3009453 -168.756653 88.7142258 0.586313963 -0.674877524 0.446792185 0 255 0 
-51.7988129 -99.1527863 211.18866 -0.521165848 -0.131201088 0.842995167 0 255 0 
5.7182045 -191.362183 166.867218 0.177452013 -0.856491685 0.483912498 0 255 0 
-39.2339211 -185.157394 26.5792313 -0.339956939 -0.82129252 -0.454487979 0 255 0 
-46.8888054 -189.794586 143.816055 -0.674599886 -0.716864467 0.171447977 0 255 0 
10.1845856 -169.70343 193.844955 0.21740897 -0.644220471 0.732804596 0 255 0 
-63.1573982 -144.213699 182.546249 -0.766347528 -0.383623779 0.515304387 0 255 0 
-79.6689148 -150.357803 125.451721 -0.859909058 -0.50869441 0.0397754088 0 255 0 
37.7105331 -188.61264 110.090317 0.0579735041 -0.992660701 0.0996930674 0 255 0 
19.0630627 -195.83548 115.538864 0.487672895 -0.684711277 -0.538885534 0 255 0 
-62.3829041 -174.547272 131.88269 -0.784728885 -0.619484305 0.000705136452 0 255 0 
65.9716797 -149.868347 136.936188 0.939511299 -0.313237131 0.136467934 0 255 0 
31.3648148 -191.759872 147.209625 0.37910825 -0.895246565 0.229113415 0 255 0 
-70.301384 -120.476616 187.417786 -0.759339154 -0.31297642 0.570455313 0 255 0 
73.8546066 -137.61824 110.881477 0.945213079 -0.264186352 0.189706832 0 255 0 
17.3347607 -209.403473 65.3922806 -0.985525608 0.160333753 0.0383502543 0 255 0 
-52.5690956 -184.450836 109.463943 -0.834409654 -0.523283482 -0.168155104 0 255 0 
19.4611835 -197.231796 141.617767 0.104096234 -0.897687852 0.427175403 0 255 0 
-36.9761353 -123.795059 212.171082 -0.377868891 -0.267740726 0.886187911 0 255 0 
49.5822868 -104.879082 194.941132 0.707673013 -0.0925795361 0.700052321 0 255 0 
57.0160217 -172.935349 61.3480263 0.683035016 -0.683305085 -0.25540328 0 255 0 
76.163681 -118.513489 84.7896194 0.945581257 -0.316906124 0.0692580491 0 255 0 
-47.2711258 -192.806931 129.967529 -0.683601677 -0.720053792 0.114891626 0 255 0 
-74.8548508 -149.724731 63.7339706 -0.956606567 -0.273111939 0.0967866033 0 255 0 
1.24163938 -217.041992 78.6120834 -0.355354607 -0.796899915 0.486949503 0 255 0 
75.867424 -119.100403 105.58847 0.98128444 0.109240085 0.14305988 0 255 0 
17.1271782 -127.83622 211.245758 0.319800347 -0.271823227 0.907571673 0 255 0 
49.2435341 -178.297318 81.7200851 0.390490174 -0.84584707 0.362034112 0 255 0 
21.8096581 -193.826401 0.771218598 0.650556505 -0.547706127 -0.524102807 0 255 0 
-60.3383598 -171.611267 154.770096 -0.743854821 -0.583361864 0.325972021 0 255 0 
13.4748802 -204.231827 62.3843117 0.786699593 0.038226258 0.598710418 0 255 0 
72.3905563 -112.079422 148.664001 0.989605546 -0.101031266 0.0970206261 0 255 0 
-54.2817993 -184.926743 122.852341 -0.800460517 -0.599284947 -0.00550175644 0 255 0 
-73.3960571 -136.432159 172.536865 -0.807114124 -0.324516326 0.493175894 0 255 0 
0.440220386 -201.198914 59.1149864 -0.186324731 -0.875227213 0.435851723 0 255 0 
17.8448353 -102.463837 216.631714 0.368363082 -0.142301053 0.918369651 0 255 0 
-14.1771736 -197.576447 157.349777 0.0227144994 -0.914120257 0.402579129 0 255 0 
60.589283 -166.805771 117.140366 0.929138422 -0.368374705 0.000173767097 0 255 0 
37.9241905 -181.44632 59.7996712 0.0195201337 -0.913218141 -0.405918837 0 255 0 
-40.9919853 -193.240494 58.3590164 -0.246277124 -0.927618384 -0.279948115 0 255 0 
-19.9861507 -190.27037 171.883057 -0.0635217056 -0.824233294 0.562143207 0 255 0 
23.2027111 -192.748566 30.1054764 0.720710456 -0.687791824 -0.0627013445 0 255 0 
34.0550613 -186.988602 76.6388779 0.394441783 -0.916257501 0.0658033639 0 255 0 
55.5013618 -175.523148 73.1510391 0.716731191 -0.692831039 -0.0637879968 0 255 0 
-68.7338791 -169.619858 106.810951 -0.712624192 -0.696811795 0.0779687241 0 255 0 
-23.755106 -192.055588 3.12650657 -0.584393203 -0.666510761 -0.462460488 0 255 0 
-51.8937454 -134.293396 200.736145 -0.583872557 -0.299768984 0.754036605 0 255 0 
35.8438835 -114.645409 205.248795 0.503425777 -0.101516597 0.857959688 0 255 0 
40.8824844 -184.213394 101.437408 -0.0363732129 -0.225294024 -0.967603862 0 255 0 
5.8634367 -162.639435 200.155655 0.165966213 -0.522136211 0.836357117 0 255 0 
35.5695305 -182.613998 98.5956802 0.011165306 -0.852873623 -0.510281861 0 255 0 
-47.1843185 -194.052887 125.650223 -0.743904948 -0.627657771 0.227887571 0 255 0 
72.7824936 -132.734909 48.3725014 0.971013069 0.235772863 -0.0364876464 0 255 0 
-51.4595642 -176.121704 170.206787 -0.610594511 -0.691541553 0.385788083 0 255 0 
35.9454842 -105.584412 206.619766 0.542070448 -0.119800434 0.831401467 0 255 0 
-75.6909409 -139.705612 166.462494 -0.827835977 -0.353401423 0.434807807 0 255 0 
-22.257803 -161.369247 201.651688 -0.174073681 -0.557689428 0.811267197 0 255 0 
76.6335449 -129.471176 101.787903 0.980587065 -0.149332553 0.124275066 0 255 0 
64.1502075 -164.423447 62.6650238 0.856863856 -0.514030159 0.0160942897 0 255 0 
-38.9614143 -197.279816 117.9953 -0.118830107 -0.87673372 -0.465043426 0 255 0 
23.7870102 -143.874359 204.089493 0.391076326 -0.309597731 0.866496682 0 255 0 
44.3213463 -168.613113 174.807892 0.590434313 -0.563415289 0.577667713 0 255 0 
-52.8699684 -184.456116 139.832642 -0.746773124 -0.623681307 0.230520904 0 255 0 
-0.494866401 -200.670334 37.3264427 -0.0667966679 -0.533130586 -0.843175054 0 255 0 
-40.2055321 -95.490799 217.214493 -0.311972737 -0.131039977 0.940914631 0 255 0 
13.6203814 -197.376068 144.800552 0.197299242 -0.953035116 0.229522422 0 255 0 
-17.7426281 -107.534668 221.16629 -0.13593635 -0.213419646 0.967161179 0 255 0 
-13.1288424 -118.409615 218.691193 -0.0238558818 -0.2460251 0.968887985 0 255 0 
53.2763824 -172.920059 151.500305 0.818303645 -0.560556531 0.108115643 0 255 0 
-40.2624359 -190.3918 156.634735 -0.447569042 -0.88553381 0.121793412 0 255 0 
-41.1445351 -178.224518 177.935654 -0.429831445 -0.713920832 0.552155554 0 255 0 
28.6377983 -188.415863 15.1769037 0.658770561 -0.706469655 0.257073194 0 255 0 
25.376482 -203.914307 70.5789871 0.501791775 -0.480465233 0.718220353 0 255 0 
-33.4203224 -181.561859 178.567352 -0.281463206 -0.736172616 0.615468979 0 255 0 
-22.4265327 -194.627609 6.93741417 -0.559859395 -0.820438743 -0.110234253 0 255 0 
65.6663666 -155.547668 97.621376 0.63062501 -0.683654368 0.365200877 0 255 0 
-26.0478573 -187.612579 173.895859 -0.221959352 -0.794521511 0.565128684 0 255 0 
-74.7885895 -155.623596 149.67131 -0.859598577 -0.474346846 0.189487979 0 255 0 
73.0781708 -117.073601 127.908813 0.985248566 -0.167387173 -0.0184260365 0 255 0 
14.7838573 -153.986511 203.324799 0.248626828 -0.456420988 0.853942335 0 255 0 
-1.50646305 -218.611572 64.9862442 -0.621291101 -0.741473496 -0.249932542 0 255 0 
20.6050949 -104.846207 215.094528 0.44739157 -0.133973807 0.884211063 0 255 0 
-33.4440002 -174.672882 186.042221 -0.321748435 -0.682481885 0.65623796 0 255 0 
-7.88021755 -199.731918 60.1971397 0.0120464116 -0.957710624 -0.27589038 0 255 0 
36.7407837 -174.203171 5.6498723 0.8184008 -0.495305002 -0.289659083 0 255 0 
-7.32538939 -200.221542 17.3367882 -0.295438498 -0.910420895 0.287418008 0 255 0 
74.8134842 -123.377548 112.915268 0.970803499 0.0288551841 0.235297263 0 255 0 
33.0438652 -111.423958 207.425186 0.531410456 -0.145207942 0.834563375 0 255 0 
45.0798149 -178.71106 56.4662895 0.31471628 -0.813126802 -0.48868838 0 255 0 
15.0791454 -142.521729 207.586548 0.23608315 -0.241189003 0.941073716 0 255 0 
58.8763542 -166.885178 107.576645 0.968774378 -0.204158515 -0.140337124 0 255 0 
23.431982 -191.576538 115.570625 0.298545808 -0.396892041 -0.867661357 0 255 0 
-21.4328194 -192.204712 100.495255 0.103805244 -0.935193896 0.333384246 0 255 0 
69.5043335 -114.117973 157.738449 0.919024646 -0.128903121 0.372318983 0 255 0 
-85.1306076 -135.443344 142.336227 -0.946093202 -0.316332281 0.0652905703 0 255 0 
-38.5612144 -127.655174 210.381516 -0.372850239 -0.240155205 0.896262765 0 255 0 
-6.36906958 -133.822632 213.578781 -0.0136853987 -0.34113732 0.939641714 0 255 0 
39.4903984 -103.148361 204.106323 0.617508173 -0.0932318345 0.781008005 0 255 0 
-26.9812107 -193.328079 39.4753418 -0.217790127 -0.862900317 -0.455964714 0 255 0 
-59.9780731 -147.691986 184.929291 -0.791470766 -0.348428667 0.501660049 0 255 0 
48.4170456 -166.677505 29.3670959 0.596433163 -0.780255556 -0.182705089 0 255 0 
64.2703781 -126.245399 165.319809 0.888534248 -0.172084495 0.424841911 0 255 0 
-48.2722473 -188.372437 145.178864 -0.689587951 -0.723849595 0.0122937374 0 255 0 
68.9682922 -140.854095 137.826126 0.961984575 -0.258671403 0.0790267587 0 255 0 
-17.7693825 -195.826401 162.136246 -0.0344246477 -0.94519794 0.322864294 0 255 0 
25.4632607 -190.001846 57.0160675 0.813930988 -0.557979941 -0.120394424 0 255 0 
74.6168594 -116.449013 115.598259 0.98792243 0.0744890422 0.121363565 0 255 0 
-37.1895752 -196.067627 114.906166 -0.315537423 -0.910498798 -0.258977592 0 255 0 
-85.5822067 -130.435669 150.079666 -0.959086418 -0.225910321 0.169423521 0 255 0 
59.9436951 -108.927711 178.814102 0.864222825 -0.149309188 0.479284078 0 255 0 
48.4438629 -181.304733 141.733154 0.745015204 -0.661858678 0.0693493336 0 255 0 
30.3556023 -180.613983 33.7083664 0.818315148 -0.495504558 0.289493322 0 255 0 
-43.1561623 -108.75946 213.66127 -0.401969761 -0.233343259 0.88510412 0 255 0 
-6.48402405 -200.530121 85.995163 -0.374726892 -0.789586842 0.485481024 0 255 0 
-22.5563183 -194.655716 8.27105427 -0.526253521 -0.849027693 -0.0325413458 0 255 0 
8.71946621 -198.688354 27.2061234 0.230706185 -0.932241082 -0.275771111 0 255 0 
26.3206196 -151.800781 199.036545 0.38147226 -0.434110641 0.8159706 0 255 0 
58.2483826 -107.592628 182.601395 0.879033744 -0.136578426 0.456456065 0 255 0 
56.1986771 -173.900482 134.233719 0.853283286 -0.41092813 0.320036024 0 255 0 
-38.2725105 -112.869995 214.481491 -0.364476115 -0.276465952 0.88867557 0 255 0 
-71.4784622 -167.837448 56.9137383 -0.930186152 -0.363133371 0.0452225618 0 255 0 
50.7516212 -177.714157 81.2365646 0.450767159 -0.83700794 0.309510589 0 255 0 
-47.3492508 -172.006531 179.827072 -0.470005542 -0.5997082 0.647574902 0 255 0 
45.9448509 -172.688889 47.674221 0.264335781 -0.757389486 -0.596862376 0 255 0 
59.6878548 -161.147995 147.504837 0.928509235 -0.35986191 0.0903231576 0 255 0 
14.6968307 -187.268631 -7.73822498 0.322063267 -0.408071071 -0.853377581 0 255 0 
-65.3771896 -175.19545 91.490448 -0.805690527 -0.498600036 -0.319264829 0 255 0 
-71.5503082 -164.837036 113.886604 -0.772578478 -0.620133936 0.135142922 0 255 0 
-27.4937 -197.000458 79.3485718 -0.0982274562 -0.95864296 0.266995579 0 255 0 
23.8103199 -200.347748 130.858047 0.333947748 -0.936977029 0.0951663405 0 255 0 
-41.6714668 -195.036377 78.4085617 -0.300911874 -0.90124011 0.310155511 0 255 0 
12.326479 -166.232742 195.892349 0.294690579 -0.601328492 0.742283225 0 255 0 
-79.6174011 -153.583008 108.487442 -0.876608014 -0.473604202 0.0847022235 0 255 0 
-43.0569229 -192.717682 112.256889 -0.295085788 -0.803278208 -0.515175045 0 255 0 
68.3367462 -131.698029 151.65889 0.943458498 -0.206347853 0.259185433 0 255 0 
-61.1614952 -182.135254 81.2176971 -0.576751232 -0.816658676 0.00714789657 0 255 0 
-28.3768368 -194.309891 46.3316994 -0.327577978 -0.94289279 0.0478658304 0 255 0 
75.4714279 -116.10881 107.804825 0.961484373 0.207562476 0.175582558 0 255 0 
-91.1294556 -131.015274 88.711937 -0.919505596 -0.310799897 0.23997739 0 255 0 
35.2386894 -95.5723724 208.909714 0.546114981 -0.123786733 0.826789916 0 255 0 
5.17664289 -196.967529 -4.34525919 0.12814641 -0.659591794 -0.739679337 0 255 0 
-28.9992504 -153.867813 204.140762 -0.288308978 -0.4722718 0.832831979 0 255 0 
-62.7381973 -151.569946 177.589828 -0.775070429 -0.335116506 0.535260022 0 255 0 
-21.6364059 -194.220261 59.8122559 -0.0247661602 -0.998828113 0.0265092384 0 255 0 
-52.5627556 -182.472931 150.472366 -0.801316798 -0.570005536 0.180725023 0 255 0 
45.3916206 -178.621353 160.878387 0.604939818 -0.64150095 0.469985545 0 255 0 
-41.4335899 -193.208817 147.208908 -0.495994329 -0.851400316 0.165212631 0 255 0 
26.8107014 -190.47348 53.6739616 0.695928991 -0.601645529 0.390944481 0 255 0 
56.5226288 -103.810547 186.442169 0.82746768 -0.119508594 0.548508465 0 255 0 
19.6550865 -198.901169 7.56295347 0.558894753 -0.824936628 -0.0617208108 0 255 0 
31.7820301 -89.4882965 211.787674 0.536642551 -0.131756738 0.833446026 0 255 0 
-81.9468536 -142.411072 143.690506 -0.901355386 -0.418216467 0.111546233 0 255 0 
-74.4962616 -157.293152 145.828445 -0.834180474 -0.534104109 0.136712164 0 255 0 
-86.4820023 -140.581757 78.9048004 -0.749278784 -0.660214067 0.0395666957 0 255 0 
23.4820995 -192.026337 88.4893646 0.757255912 -0.406661272 0.509738266 0 255 0 
34.9108734 -194.411057 139.984238 0.420055717 -0.830694497 0.363888383 0 255 0 
-29.5032539 -180.918793 180.976288 -0.242503718 -0.736646175 0.63115865 0 255 0 
-15.2666245 -186.446945 177.473877 -0.00677629746 -0.804930151 0.593170047 0 255 0 
-56.481781 -187.085709 74.7986221 -0.737894177 -0.671979427 0.0248244349 0 255 0 
-53.8991852 -165.696686 179.449692 -0.665002584 -0.54634136 0.508919418 0 255 0 
-34.8759995 -194.412872 153.333893 -0.334180355 -0.886235952 0.319404989 0 255 0 
-40.7995033 -187.543152 163.894577 -0.471241593 -0.779062867 0.413316369 0 255 0 
-74.0078812 -152.56752 64.0396271 -0.964133978 -0.260258734 0.0457845405 0 255 0 
-68.1366882 -173.69014 75.4110718 -0.830675006 -0.535973132 -0.147394016 0 255 0 
74.9263763 -111.778854 101.574348 0.972255707 0.226328522 -0.0359011106 0 255 0 
-66.3903427 -136.505554 183.002335 -0.775336385 -0.368116647 0.513038874 0 255 0 
-64.0420532 -179.731827 78.7549362 -0.751805782 -0.645980597 -0.125019699 0 255 0 
55.9319954 -170.702393 145.32515 0.883947194 -0.449605763 0.127504602 0 255 0 
-41.0598602 -99.5806732 216.270004 -0.367603689 -0.149927437 0.917686164 0 255 0 
54.7648354 -173.557999 57.8540535 0.629879355 -0.702568412 -0.329784274 0 255 0 
29.2013893 -188.429047 8.63173389 0.8411358 -0.531049311 -0.0998841524 0 255 0 
35.0293427 -180.082001 40.9360619 0.709593058 -0.442410946 -0.542761207 0 255 0 
-14.4808521 -98.2754669 223.047546 -0.0794478953 -0.164975226 0.982962608 0 255 0 
-22.2551022 -189.060989 -1.39514303 -0.517343879 -0.484173536 -0.705335975 0 255 0 
-57.1839256 -179.959091 136.494675 -0.773681521 -0.624041319 0.109259732 0 255 0 
-50.4933739 -183.487564 156.776855 -0.700911999 -0.672908664 0.235622883 0 255 0 
63.5027657 -138.947388 159.173538 0.854844987 -0.269505769 0.443226159 0 255 0 
67.522789 -146.326004 126.300087 0.962189555 -0.271442562 0.00113978563 0 255 0 
44.3691444 -119.48246 197.845322 0.645488083 -0.22626394 0.729353547 0 255 0 
-44.6976204 -195.920624 127.931488 -0.657115698 -0.743474185 0.122295633 0 255 0 
0.983576596 -167.228195 197.688354 0.115682773 -0.629508972 0.768248916 0 255 0 
72.2997818 -120.28656 144.316116 0.989327908 -0.116551124 0.0814004764 0 255 0 
-69.1539993 -167.485428 38.9554672 -0.820788682 -0.454780847 -0.344607294 0 255 0 
-27.6249676 -196.557098 153.376373 -0.241699755 -0.936069965 0.255409628 0 255 0 
71.861618 -143.584518 71.1881943 0.998668909 -0.00561165623 0.0468102172 0 255 0 
2.60736418 -201.292038 60.0133095 -0.33293274 -0.609228253 0.714324474 0 255 0 
60.9156494 -102.642265 178.639877 0.900413752 -0.0445391238 0.432540566 0 255 0 
58.9159431 -160.892365 153.21785 0.933284342 -0.307868272 0.184831738 0 255 0 
-39.7354851 -195.735046 77.7206955 -0.208786279 -0.94326508 0.257556766 0 255 0 
68.5370941 -140.400269 34.323082 0.850913405 -0.12703146 -0.50942564 0 255 0 
19.6293087 -113.156075 213.839844 0.359083056 -0.227485925 0.905032754 0 255 0 
-64.5259857 -166.512482 154.679794 -0.684957504 -0.694944203 0.217740685 0 255 0 
-10.98277 -192.450195 111.712959 0.311097383 -0.798987448 -0.514229238 0 255 0 
-67.918541 -172.39711 99.5254364 -0.720615149 -0.653235197 0.230765179 0 255 0 
-4.72091818 -189.21199 173.058548 0.0610205233 -0.82162559 0.566063046 0 255 0 
-19.6590481 -108.331131 220.621384 -0.204505593 -0.231620818 0.95088619 0 255 0 
30.1634369 -182.458633 30.4117184 0.834860861 -0.518175602 0.181597233 0 255 0 
4.32480001 -198.807404 143.157639 0.117100015 -0.981521666 0.134545788 0 255 0 
-71.8184586 -164.786911 67.9904785 -0.961326241 -0.27474609 0.0131600741 0 255 0 
-13.8301954 -203.009186 140.514297 -0.0299004372 -0.906080365 0.421709925 0 255 0 
18.5718117 -214.780807 57.4498367 0.768641591 -0.308895707 -0.559660316 0 255 0 
58.2282257 -172.219223 113.240944 0.831908226 -0.431703687 -0.347958565 0 255 0 
7.25913334 -154.239136 204.67363 0.117610127 -0.416933417 0.901200056 0 255 0 
59.5438614 -162.423248 145.408569 0.898000717 -0.344298244 0.272285342 0 255 0 
-48.1964226 -178.428345 26.5264702 -0.478683949 -0.845489919 -0.232890815 0 255 0 
66.9776688 -118.183594 162.024734 0.899817348 -0.132913783 0.415249914 0 255 0 
63.7182465 -155.468063 108.651009 0.756300092 -0.646558046 -0.0409939066 0 255 0 
-70.2565842 -171.442688 81.1488724 -0.900412083 -0.432424277 0.00404228829 0 255 0 
68.0450897 -152.442047 75.4248886 0.781506658 -0.611503124 0.121533006 0 255 0 
48.83395 -104.300903 195.740326 0.694346786 -0.0797932446 0.714811921 0 255 0 
-84.1304626 -137.99614 98.4709015 -0.802514136 -0.483299911 0.349238604 0 255 0 
39.8304443 -162.827255 184.300903 0.553367913 -0.518928409 0.650803864 0 255 0 
-0.833030701 -165.026215 199.716492 0.0656561106 -0.592638671 0.802481115 0 255 0 
-33.965538 -198.512848 141.466599 -0.397680551 -0.887058139 0.234325483 0 255 0 
73.4787903 -127.776909 117.605247 0.950534403 -0.14183861 0.276054054 0 255 0 
71.9414063 -143.771194 106.972298 0.915319681 -0.37680164 0.141822368 0 255 0 
-55.0671272 -152.111221 188.590958 -0.725993276 -0.348760039 0.592275918 0 255 0 
57.5372505 -164.737915 44.8529129 0.554062247 -0.802047372 -0.221075177 0 255 0 
21.4176922 -207.932404 77.5015411 0.915979445 -0.175379962 0.358451158 0 255 0 
52.1351166 -172.270416 158.722214 0.776244521 -0.524468899 0.346769929 0 255 0 
25.7055435 -112.524345 211.141541 0.481637567 -0.137840867 0.865390897 0 255 0 
25.3217831 -192.711975 153.54512 0.268689275 -0.950358689 0.156768486 0 255 0 
-59.0973091 -175.901688 145.66568 -0.768008709 -0.606576383 0.204569429 0 255 0 
-58.8804779 -172.610733 156.406479 -0.773989797 -0.55740571 0.299046159 0 255 0 
20.5011501 -163.500381 194.931 0.310591102 -0.58247751 0.750958741 0 255 0 
29.2920856 -190.0569 157.955139 0.356900811 -0.86129874 0.360690802 0 255 0 
25.3257923 -184.956741 -2.2690804 0.641151071 -0.449693441 -0.621674597 0 255 0 
17.2731934 -197.150482 142.722137 0.206473082 -0.931812882 0.297782242 0 255 0 
69.6249695 -131.696167 68.5802383 0.966257632 0.23949644 -0.0936535448 0 255 0 
59.2513809 -154.775894 160.658905 0.93388921 -0.239599824 0.26486814 0 255 0 
-31.025547 -196.603561 63.5383911 -0.0601652488 -0.974321663 -0.215567231 0 255 0 
70.5281982 -130.709946 60.5332756 0.916879177 0.320710659 0.23430264 0 255 0 
-4.23527336 -198.660065 151.470474 0.124838039 -0.959248126 0.252261341 0 255 0 
12.0711946 -215.415726 81.7701035 0.21807082 -0.81958282 0.528384507 0 255 0 
3.70447397 -211.429871 56.1074219 -0.892660856 0.423308372 -0.121924214 0 255 0 
-32.9395332 -114.828049 215.939163 -0.325355381 -0.277880609 0.903685331 0 255 0 
35.4905014 -196.074448 132.017868 0.519410312 -0.85027802 0.073850587 0 255 0 
1.18013608 -201.795547 99.0529785 -0.740168512 -0.6357373 0.216725886 0 255 0 
-61.9927902 -174.491348 123.716278 -0.799407959 -0.599989593 0.00979930442 0 255 0 
40.4660378 -178.014893 46.6446381 0.65650326 -0.727319837 -0.199317247 0 255 0 
-47.7743454 -181.778107 166.011841 -0.58366394 -0.720850348 0.373504281 0 255 0 
70.0330658 -152.525238 47.6512985 0.849019825 -0.487440199 -0.203269407 0 255 0 
-79.4747467 -130.363281 165.891403 -0.851327717 -0.24486728 0.463775039 0 255 0 
-39.7396011 -195.969666 139.485855 -0.498571336 -0.848981261 0.174633756 0 255 0 
-16.9554157 -198.918137 42.9194717 -0.415060401 -0.901863217 -0.111493625 0 255 0 
31.2953072 -189.080338 157.99736 0.457945913 -0.807412803 0.371026009 0 255 0 
-73.7926788 -155.696152 51.815937 -0.979774594 -0.191789567 -0.0523872785 0 255 0 
66.1637039 -99.1562347 168.664047 0.888710022 -0.096301429 0.448067069 0 255 0 
64.8496094 -121.194275 165.680328 0.868954062 -0.108549826 0.482824117 0 255 0 
72.4313889 -141.312225 64.9920425 0.996336102 0.0131901959 0.0832978934 0 255 0 
17.829668 -146.57579 205.678116 0.32494086 -0.296659678 0.89749068 0 255 0 
54.7495728 -124.57283 184.656494 0.851952016 -0.133264989 0.506138921 0 255 0 
52.714138 -179.82576 113.804344 0.641747832 -0.724686265 -0.248687625 0 255 0 
29.901022 -113.395607 208.977966 0.476785898 -0.157465518 0.864609003 0 255 0 
12.9038982 -209.753281 52.9514656 0.926021457 0.215991199 -0.286273897 0 255 0 
-79.9141998 -126.564941 167.285278 -0.854305148 -0.274278164 0.441435635 0 255 0 
-11.1284323 -199.936768 53.1834259 -0.334250748 -0.866690755 0.369571388 0 255 0 
-55.3210297 -175.488022 31.8092766 -0.62715894 -0.65169692 -0.425625354 0 255 0 
-64.8662262 -174.891968 99.8213043 -0.587043643 -0.785027981 0.196833029 0 255 0 
-36.5186043 -124.952194 211.993103 -0.386854738 -0.28308481 0.877481043 0 255 0 
-70.1387711 -169.595276 73.4701538 -0.912965417 -0.405616492 -0.0398907512 0 255 0 
7.18434095 -202.956268 8.62031841 0.177653611 -0.98010838 -0.0838916376 0 255 0 
43.2424622 -173.868927 170.52211 0.611966848 -0.601213217 0.512675345 0 255 0 
34.4169006 -122.541687 204.303284 0.456203341 -0.270764112 0.84752804 0 255 0 
24.6875172 -204.439529 70.6941147 0.531215787 -0.455152929 0.712719142 0 255 0 
-69.3824997 -165.11319 129.156174 -0.830803871 -0.555497527 -0.0305016264 0 255 0 
-55.5486374 -133.660126 197.928238 -0.643532753 -0.305984586 0.701523423 0 255 0 
49.6424789 -176.677567 102.8311 0.857582986 -0.288283139 -0.419232398 0 255 0 
37.982769 -168.342148 3.4647038 0.781261146 -0.117688969 -0.612654448 0 255 0 
-86.9947815 -133.359909 127.946243 -0.931134582 -0.363495052 0.016874833 0 255 0 
35.0233536 -137.391083 200.179153 0.474553645 -0.273573667 0.836406231 0 255 0 
-54.6777725 -112.492088 205.972153 -0.554193854 -0.220714152 0.802468181 0 255 0 
38.9735641 -188.884262 146.495041 0.477193654 -0.843813539 0.242691666 0 255 0 
-72.881752 -165.336945 97.842453 -0.843542635 -0.456095755 -0.281703234 0 255 0 
74.1422806 -123.538162 90.6912918 0.995341539 0.00478602201 -0.0812933147 0 255 0 
-1.99440444 -203.897858 128.21994 0.155341089 -0.986582398 -0.0440783687 0 255 0 
-54.1676559 -185.132202 125.492645 -0.822563291 -0.568523049 -0.000507467892 0 255 0 
-9.77722645 -198.926819 55.8882294 -0.273031443 -0.78022635 0.562479973 0 255 0 
-87.263298 -131.193298 137.263229 -0.916851938 -0.378081322 0.126909643 0 255 0 
31.5407467 -164.317123 188.421021 0.372286141 -0.59376657 0.713238597 0 255 0 
-67.8383942 -173.48645 69.1658249 -0.83118248 -0.554296494 -0.0418800712 0 255 0 
-51.7056236 -187.41539 54.0788307 -0.437777877 -0.8758232 -0.202418551 0 255 0 
-7.55717993 -157.139145 204.908768 0.0406943671 -0.461434484 0.886230707 0 255 0 
-52.5922508 -179.116882 161.39592 -0.798683286 -0.574331701 0.179252639 0 255 0 
10.8077164 -198.997101 -0.986262739 0.123518214 -0.834073424 -0.53671515 0 255 0 
26.4155979 -184.851852 92.6011505 0.474121332 -0.769882977 0.425756097 0 255 0 
-90.6949844 -133.270279 86.2233047 -0.873091102 -0.462320745 0.154319122 0 255 0 
75.4578094 -136.854446 101.402252 0.967818201 -0.231442079 0.0954891667 0 255 0 
5.54662085 -202.974762 12.1738129 0.175638437 -0.960166276 0.216922969 0 255 0 
32.0878258 -185.211685 52.2325935 0.662937582 -0.723303676 0.192311972 0 255 0 
-59.3491631 -174.575043 150.390793 -0.741930902 -0.628700972 0.23263666 0 255 0 
-23.9507923 -189.610229 0.350493163 -0.587138772 -0.522593439 -0.617108464 0 255 0 
57.4565582 -145.960129 173.588669 0.91772753 -0.213258147 0.333931744 0 255 0 
57.2400436 -140.557343 177.056747 0.889853895 -0.139580876 0.433498561 0 255 0 
6.54825592 -205.432739 98.8413925 -0.241463035 -0.749101639 0.615574598 0 255 0 
38.9614983 -168.765228 179.802887 0.523493648 -0.585655689 0.618405938 0 255 0 
53.4367332 -163.18364 35.2045441 0.574658871 -0.811465919 -0.0983879864 0 255 0 
59.526226 -167.764069 130.865875 0.910531878 -0.38857913 0.140030995 0 255 0 
75.7571945 -127.162453 108.612251 0.97315681 -0.0130140483 0.228358418 0 255 0 
14.1931467 -171.445602 190.590164 0.271443784 -0.688082039 0.672929823 0 255 0 
-33.072628 -113.485886 216.28891 -0.302043021 -0.250704855 0.919679523 0 255 0 
-52.7842064 -113.282974 206.988495 -0.525821209 -0.215655088 0.822786093 0 255 0 
-52.484417 -165.778656 181.079773 -0.608223498 -0.551040709 0.570612729 0 255 0 
-33.7203522 -197.532013 71.6708374 -0.214521915 -0.971798718 0.0934295431 0 255 0 
53.5487099 -180.143295 116.777649 0.700355887 -0.682496905 -0.204252243 0 255 0 
-60.1561623 -176.646805 110.193398 -0.602699518 -0.795335293 0.0624128208 0 255 0 
24.3904991 -195.048737 49.614151 0.740222454 -0.648593724 0.176996008 0 255 0 
-36.749939 -119.651527 213.283646 -0.349630237 -0.234211877 0.906975687 0 255 0 
39.4004402 -166.806259 5.24484348 0.815201163 -0.144519135 -0.559615731 0 255 0 
-56.1817436 -185.051575 88.9419708 -0.400166214 -0.843889713 -0.35382539 0 255 0 
52.6840858 -121.819778 188.225845 0.773317337 -0.157933176 0.614018381 0 255 0 
-66.753624 -146.531311 175.360428 -0.769012511 -0.368928254 0.521871924 0 255 0 
70.6712112 -144.13591 114.88665 0.897788465 -0.379459471 0.222132713 0 255 0 
-14.0231609 -195.858154 37.516449 -0.224415034 -0.397863507 -0.889273882 0 255 0 
-88.1798096 -125.547501 144.271255 -0.942560434 -0.290232003 0.164848581 0 255 0 
52.6121101 -180.460373 115.275986 0.633761942 -0.726127207 -0.266361654 0 255 0 
